ncols        992
nrows        32
xllcorner    4404750
yllcorner    3210000
cellsize     250.000000000000
NODATA_value    -9999
30 30 30 30 31 31 31 31 31 31 31 31 30 30 30 30 30 30 30 30 33 33 33 33 33 33 33 33 33 33 33 33 33 33 33 33 30 30 30 30 31 31 31 31 31 31 31 31 33 33 33 33 33 33 33 33 27 27 27 27 25 25 25 25 24 24 24 24 21 21 21 21 24 24 24 24 27 27 27 27 33 33 33 33 32 32 32 32 32 32 32 32 30 30 30 30 31 31 31 31 31 31 31 31 31 31 31 31 31 31 31 31 30 30 30 30 30 30 30 30 30 30 30 30 32 32 32 32 38 38 38 38 38 38 38 38 31 31 31 31 29 29 29 29 29 29 29 29 21 21 21 21 16 16 16 16 16 16 16 16 16 16 16 16 16 16 16 16 17 17 17 17 17 17 17 17 17 17 17 17 17 17 17 17 17 17 17 17 17 17 17 17 17 17 17 17 17 17 17 17 17 17 17 17 17 17 17 17 16 16 16 16 20 20 20 20 21 21 21 21 26 26 26 26 25 25 25 25 27 27 27 27 27 27 27 27 28 28 28 28 27 27 27 27 27 27 27 27 29 29 29 29 25 25 25 25 24 24 24 24 24 24 24 24 23 23 23 23 28 28 28 28 28 28 28 28 29 29 29 29 27 27 27 27 27 27 27 27 31 31 31 31 31 31 31 31 30 30 30 30 30 30 30 30 33 33 33 33 32 32 32 32 32 32 32 32 34 34 34 34 38 38 38 38 40 40 40 40 40 40 40 40 44 44 44 44 46 46 46 46 45 45 45 45 47 47 47 47 49 49 49 49 54 54 54 54 51 51 51 51 51 51 51 51 49 49 49 49 56 56 56 56 57 57 57 57 51 51 51 51 45 45 45 45 40 40 40 40 42 42 42 42 45 45 45 45 42 42 42 42 32 32 32 32 30 30 30 30 31 31 31 31 27 27 27 27 27 27 27 27 27 27 27 27 27 27 27 27 31 31 31 31 32 32 32 32 39 39 39 39 37 37 37 37 39 39 39 39 38 38 38 38 36 36 36 36 33 33 33 33 30 30 30 30 30 30 30 30 27 27 27 27 26 26 26 26 23 23 23 23 23 23 23 23 25 25 25 25 20 20 20 20 19 19 19 19 18 18 18 18 22 22 22 22 32 32 32 32 16 16 16 16 16 16 16 16 16 16 16 16 16 16 16 16 16 16 16 16 16 16 16 16 16 16 16 16 16 16 16 16 16 16 16 16 19 19 19 19 20 20 20 20 17 17 17 17 17 17 17 17 14 14 14 14 14 14 14 14 14 14 14 14 14 14 14 14 17 17 17 17 17 17 17 17 17 17 17 17 17 17 17 17 17 17 17 17 17 17 17 17 17 17 17 17 17 17 17 17 17 17 17 17 17 17 17 17 17 17 17 17 17 17 17 17 17 17 17 17 17 17 17 17 17 17 17 17 17 17 17 17 16 16 16 16 19 19 19 19 14 14 14 14 22 22 22 22 21 21 21 21 18 18 18 18 18 18 18 18 14 14 14 14 17 17 17 17 12 12 12 12 15 15 15 15 17 17 17 17 17 17 17 17 17 17 17 17 15 15 15 15 15 15 15 15 15 15 15 15 15 15 15 15 15 15 15 15 12 12 12 12 15 15 15 15 15 15 15 15 15 15 15 15 14 14 14 14 17 17 17 17 17 17 17 17 17 17 17 17 17 17 17 17 17 17 17 17 17 17 17 17 17 17 17 17 15 15 15 15 14 14 14 14 16 16 16 16 21 21 21 21 20 20 20 20 17 17 17 17 17 17 17 17 16 16 16 16 15 15 15 15 16 16 16 16 18 18 18 18 17 17 17 17 17 17 17 17 16 16 16 16 16 16 16 16 16 16 16 16 16 16 16 16 16 16 16 16 14 14 14 14 15 15 15 15 15 15 15 15 17 17 17 17 16 16 16 16 19 19 19 19 19 19 19 19 18 18 18 18 16 16 16 16 19 19 19 19 18 18 18 18 19 19 19 19 16 16 16 16 21 21 21 21 24 24 24 24 24 24 24 24 25 25 25 25 20 20 20 20 29 29 29 29 36 36 36 36 38 38 38 38 32 32 32 32 42 42 42 42 44 44 44 44 38 38 38 38 31 31 31 31 32 32 32 32 27 27 27 27 17 17 17 17 15 15 15 15 12 12 12 12 12 12 12 12 12 12 12 12 13 13 13 13 10 10 10 10 9 9 9 9 9 9 9 9 8 8 8 8 12 12 12 12
30 30 30 30 31 31 31 31 31 31 31 31 30 30 30 30 30 30 30 30 33 33 33 33 33 33 33 33 33 33 33 33 33 33 33 33 30 30 30 30 31 31 31 31 31 31 31 31 33 33 33 33 33 33 33 33 27 27 27 27 25 25 25 25 24 24 24 24 21 21 21 21 24 24 24 24 27 27 27 27 33 33 33 33 32 32 32 32 32 32 32 32 30 30 30 30 31 31 31 31 31 31 31 31 31 31 31 31 31 31 31 31 30 30 30 30 30 30 30 30 30 30 30 30 32 32 32 32 38 38 38 38 38 38 38 38 31 31 31 31 29 29 29 29 29 29 29 29 21 21 21 21 16 16 16 16 16 16 16 16 16 16 16 16 16 16 16 16 17 17 17 17 17 17 17 17 17 17 17 17 17 17 17 17 17 17 17 17 17 17 17 17 17 17 17 17 17 17 17 17 17 17 17 17 17 17 17 17 16 16 16 16 20 20 20 20 21 21 21 21 26 26 26 26 25 25 25 25 27 27 27 27 27 27 27 27 28 28 28 28 27 27 27 27 27 27 27 27 29 29 29 29 25 25 25 25 24 24 24 24 24 24 24 24 23 23 23 23 28 28 28 28 28 28 28 28 29 29 29 29 27 27 27 27 27 27 27 27 31 31 31 31 31 31 31 31 30 30 30 30 30 30 30 30 33 33 33 33 32 32 32 32 32 32 32 32 34 34 34 34 38 38 38 38 40 40 40 40 40 40 40 40 44 44 44 44 46 46 46 46 45 45 45 45 47 47 47 47 49 49 49 49 54 54 54 54 51 51 51 51 51 51 51 51 49 49 49 49 56 56 56 56 57 57 57 57 51 51 51 51 45 45 45 45 40 40 40 40 42 42 42 42 45 45 45 45 42 42 42 42 32 32 32 32 30 30 30 30 31 31 31 31 27 27 27 27 27 27 27 27 27 27 27 27 27 27 27 27 31 31 31 31 32 32 32 32 39 39 39 39 37 37 37 37 39 39 39 39 38 38 38 38 36 36 36 36 33 33 33 33 30 30 30 30 30 30 30 30 27 27 27 27 26 26 26 26 23 23 23 23 23 23 23 23 25 25 25 25 20 20 20 20 19 19 19 19 18 18 18 18 22 22 22 22 32 32 32 32 16 16 16 16 16 16 16 16 16 16 16 16 16 16 16 16 16 16 16 16 16 16 16 16 16 16 16 16 16 16 16 16 16 16 16 16 19 19 19 19 20 20 20 20 17 17 17 17 17 17 17 17 14 14 14 14 14 14 14 14 14 14 14 14 14 14 14 14 17 17 17 17 17 17 17 17 17 17 17 17 17 17 17 17 17 17 17 17 17 17 17 17 17 17 17 17 17 17 17 17 17 17 17 17 17 17 17 17 17 17 17 17 17 17 17 17 17 17 17 17 17 17 17 17 17 17 17 17 17 17 17 17 16 16 16 16 19 19 19 19 14 14 14 14 22 22 22 22 21 21 21 21 18 18 18 18 18 18 18 18 14 14 14 14 17 17 17 17 12 12 12 12 15 15 15 15 17 17 17 17 17 17 17 17 17 17 17 17 15 15 15 15 15 15 15 15 15 15 15 15 15 15 15 15 15 15 15 15 12 12 12 12 15 15 15 15 15 15 15 15 15 15 15 15 14 14 14 14 17 17 17 17 17 17 17 17 17 17 17 17 17 17 17 17 17 17 17 17 17 17 17 17 17 17 17 17 15 15 15 15 14 14 14 14 16 16 16 16 21 21 21 21 20 20 20 20 17 17 17 17 17 17 17 17 16 16 16 16 15 15 15 15 16 16 16 16 18 18 18 18 17 17 17 17 17 17 17 17 16 16 16 16 16 16 16 16 16 16 16 16 16 16 16 16 16 16 16 16 14 14 14 14 15 15 15 15 15 15 15 15 17 17 17 17 16 16 16 16 19 19 19 19 19 19 19 19 18 18 18 18 16 16 16 16 19 19 19 19 18 18 18 18 19 19 19 19 16 16 16 16 21 21 21 21 24 24 24 24 24 24 24 24 25 25 25 25 20 20 20 20 29 29 29 29 36 36 36 36 38 38 38 38 32 32 32 32 42 42 42 42 44 44 44 44 38 38 38 38 31 31 31 31 32 32 32 32 27 27 27 27 17 17 17 17 15 15 15 15 12 12 12 12 12 12 12 12 12 12 12 12 13 13 13 13 10 10 10 10 9 9 9 9 9 9 9 9 8 8 8 8 12 12 12 12
30 30 30 30 31 31 31 31 31 31 31 31 30 30 30 30 30 30 30 30 33 33 33 33 33 33 33 33 33 33 33 33 33 33 33 33 30 30 30 30 31 31 31 31 31 31 31 31 33 33 33 33 33 33 33 33 27 27 27 27 25 25 25 25 24 24 24 24 21 21 21 21 24 24 24 24 27 27 27 27 33 33 33 33 32 32 32 32 32 32 32 32 30 30 30 30 31 31 31 31 31 31 31 31 31 31 31 31 31 31 31 31 30 30 30 30 30 30 30 30 30 30 30 30 32 32 32 32 38 38 38 38 38 38 38 38 31 31 31 31 29 29 29 29 29 29 29 29 21 21 21 21 16 16 16 16 16 16 16 16 16 16 16 16 16 16 16 16 17 17 17 17 17 17 17 17 17 17 17 17 17 17 17 17 17 17 17 17 17 17 17 17 17 17 17 17 17 17 17 17 17 17 17 17 17 17 17 17 16 16 16 16 20 20 20 20 21 21 21 21 26 26 26 26 25 25 25 25 27 27 27 27 27 27 27 27 28 28 28 28 27 27 27 27 27 27 27 27 29 29 29 29 25 25 25 25 24 24 24 24 24 24 24 24 23 23 23 23 28 28 28 28 28 28 28 28 29 29 29 29 27 27 27 27 27 27 27 27 31 31 31 31 31 31 31 31 30 30 30 30 30 30 30 30 33 33 33 33 32 32 32 32 32 32 32 32 34 34 34 34 38 38 38 38 40 40 40 40 40 40 40 40 44 44 44 44 46 46 46 46 45 45 45 45 47 47 47 47 49 49 49 49 54 54 54 54 51 51 51 51 51 51 51 51 49 49 49 49 56 56 56 56 57 57 57 57 51 51 51 51 45 45 45 45 40 40 40 40 42 42 42 42 45 45 45 45 42 42 42 42 32 32 32 32 30 30 30 30 31 31 31 31 27 27 27 27 27 27 27 27 27 27 27 27 27 27 27 27 31 31 31 31 32 32 32 32 39 39 39 39 37 37 37 37 39 39 39 39 38 38 38 38 36 36 36 36 33 33 33 33 30 30 30 30 30 30 30 30 27 27 27 27 26 26 26 26 23 23 23 23 23 23 23 23 25 25 25 25 20 20 20 20 19 19 19 19 18 18 18 18 22 22 22 22 32 32 32 32 16 16 16 16 16 16 16 16 16 16 16 16 16 16 16 16 16 16 16 16 16 16 16 16 16 16 16 16 16 16 16 16 16 16 16 16 19 19 19 19 20 20 20 20 17 17 17 17 17 17 17 17 14 14 14 14 14 14 14 14 14 14 14 14 14 14 14 14 17 17 17 17 17 17 17 17 17 17 17 17 17 17 17 17 17 17 17 17 17 17 17 17 17 17 17 17 17 17 17 17 17 17 17 17 17 17 17 17 17 17 17 17 17 17 17 17 17 17 17 17 17 17 17 17 17 17 17 17 17 17 17 17 16 16 16 16 19 19 19 19 14 14 14 14 22 22 22 22 21 21 21 21 18 18 18 18 18 18 18 18 14 14 14 14 17 17 17 17 12 12 12 12 15 15 15 15 17 17 17 17 17 17 17 17 17 17 17 17 15 15 15 15 15 15 15 15 15 15 15 15 15 15 15 15 15 15 15 15 12 12 12 12 15 15 15 15 15 15 15 15 15 15 15 15 14 14 14 14 17 17 17 17 17 17 17 17 17 17 17 17 17 17 17 17 17 17 17 17 17 17 17 17 17 17 17 17 15 15 15 15 14 14 14 14 16 16 16 16 21 21 21 21 20 20 20 20 17 17 17 17 17 17 17 17 16 16 16 16 15 15 15 15 16 16 16 16 18 18 18 18 17 17 17 17 17 17 17 17 16 16 16 16 16 16 16 16 16 16 16 16 16 16 16 16 16 16 16 16 14 14 14 14 15 15 15 15 15 15 15 15 17 17 17 17 16 16 16 16 19 19 19 19 19 19 19 19 18 18 18 18 16 16 16 16 19 19 19 19 18 18 18 18 19 19 19 19 16 16 16 16 21 21 21 21 24 24 24 24 24 24 24 24 25 25 25 25 20 20 20 20 29 29 29 29 36 36 36 36 38 38 38 38 32 32 32 32 42 42 42 42 44 44 44 44 38 38 38 38 31 31 31 31 32 32 32 32 27 27 27 27 17 17 17 17 15 15 15 15 12 12 12 12 12 12 12 12 12 12 12 12 13 13 13 13 10 10 10 10 9 9 9 9 9 9 9 9 8 8 8 8 12 12 12 12
30 30 30 30 31 31 31 31 31 31 31 31 30 30 30 30 30 30 30 30 33 33 33 33 33 33 33 33 33 33 33 33 33 33 33 33 30 30 30 30 31 31 31 31 31 31 31 31 33 33 33 33 33 33 33 33 27 27 27 27 25 25 25 25 24 24 24 24 21 21 21 21 24 24 24 24 27 27 27 27 33 33 33 33 32 32 32 32 32 32 32 32 30 30 30 30 31 31 31 31 31 31 31 31 31 31 31 31 31 31 31 31 30 30 30 30 30 30 30 30 30 30 30 30 32 32 32 32 38 38 38 38 38 38 38 38 31 31 31 31 29 29 29 29 29 29 29 29 21 21 21 21 16 16 16 16 16 16 16 16 16 16 16 16 16 16 16 16 17 17 17 17 17 17 17 17 17 17 17 17 17 17 17 17 17 17 17 17 17 17 17 17 17 17 17 17 17 17 17 17 17 17 17 17 17 17 17 17 16 16 16 16 20 20 20 20 21 21 21 21 26 26 26 26 25 25 25 25 27 27 27 27 27 27 27 27 28 28 28 28 27 27 27 27 27 27 27 27 29 29 29 29 25 25 25 25 24 24 24 24 24 24 24 24 23 23 23 23 28 28 28 28 28 28 28 28 29 29 29 29 27 27 27 27 27 27 27 27 31 31 31 31 31 31 31 31 30 30 30 30 30 30 30 30 33 33 33 33 32 32 32 32 32 32 32 32 34 34 34 34 38 38 38 38 40 40 40 40 40 40 40 40 44 44 44 44 46 46 46 46 45 45 45 45 47 47 47 47 49 49 49 49 54 54 54 54 51 51 51 51 51 51 51 51 49 49 49 49 56 56 56 56 57 57 57 57 51 51 51 51 45 45 45 45 40 40 40 40 42 42 42 42 45 45 45 45 42 42 42 42 32 32 32 32 30 30 30 30 31 31 31 31 27 27 27 27 27 27 27 27 27 27 27 27 27 27 27 27 31 31 31 31 32 32 32 32 39 39 39 39 37 37 37 37 39 39 39 39 38 38 38 38 36 36 36 36 33 33 33 33 30 30 30 30 30 30 30 30 27 27 27 27 26 26 26 26 23 23 23 23 23 23 23 23 25 25 25 25 20 20 20 20 19 19 19 19 18 18 18 18 22 22 22 22 32 32 32 32 16 16 16 16 16 16 16 16 16 16 16 16 16 16 16 16 16 16 16 16 16 16 16 16 16 16 16 16 16 16 16 16 16 16 16 16 19 19 19 19 20 20 20 20 17 17 17 17 17 17 17 17 14 14 14 14 14 14 14 14 14 14 14 14 14 14 14 14 17 17 17 17 17 17 17 17 17 17 17 17 17 17 17 17 17 17 17 17 17 17 17 17 17 17 17 17 17 17 17 17 17 17 17 17 17 17 17 17 17 17 17 17 17 17 17 17 17 17 17 17 17 17 17 17 17 17 17 17 17 17 17 17 16 16 16 16 19 19 19 19 14 14 14 14 22 22 22 22 21 21 21 21 18 18 18 18 18 18 18 18 14 14 14 14 17 17 17 17 12 12 12 12 15 15 15 15 17 17 17 17 17 17 17 17 17 17 17 17 15 15 15 15 15 15 15 15 15 15 15 15 15 15 15 15 15 15 15 15 12 12 12 12 15 15 15 15 15 15 15 15 15 15 15 15 14 14 14 14 17 17 17 17 17 17 17 17 17 17 17 17 17 17 17 17 17 17 17 17 17 17 17 17 17 17 17 17 15 15 15 15 14 14 14 14 16 16 16 16 21 21 21 21 20 20 20 20 17 17 17 17 17 17 17 17 16 16 16 16 15 15 15 15 16 16 16 16 18 18 18 18 17 17 17 17 17 17 17 17 16 16 16 16 16 16 16 16 16 16 16 16 16 16 16 16 16 16 16 16 14 14 14 14 15 15 15 15 15 15 15 15 17 17 17 17 16 16 16 16 19 19 19 19 19 19 19 19 18 18 18 18 16 16 16 16 19 19 19 19 18 18 18 18 19 19 19 19 16 16 16 16 21 21 21 21 24 24 24 24 24 24 24 24 25 25 25 25 20 20 20 20 29 29 29 29 36 36 36 36 38 38 38 38 32 32 32 32 42 42 42 42 44 44 44 44 38 38 38 38 31 31 31 31 32 32 32 32 27 27 27 27 17 17 17 17 15 15 15 15 12 12 12 12 12 12 12 12 12 12 12 12 13 13 13 13 10 10 10 10 9 9 9 9 9 9 9 9 8 8 8 8 12 12 12 12
30 30 30 30 31 31 31 31 31 31 31 31 31 31 31 31 30 30 30 30 30 30 30 30 30 30 30 30 33 33 33 33 30 30 30 30 30 30 30 30 31 31 31 31 31 31 31 31 33 33 33 33 30 30 30 30 31 31 31 31 29 29 29 29 23 23 23 23 26 26 26 26 26 26 26 26 23 23 23 23 27 27 27 27 30 30 30 30 33 33 33 33 32 32 32 32 33 33 33 33 30 30 30 30 31 31 31 31 30 30 30 30 33 33 33 33 32 32 32 32 34 34 34 34 38 38 38 38 39 39 39 39 37 37 37 37 30 30 30 30 28 28 28 28 26 26 26 26 22 22 22 22 16 16 16 16 16 16 16 16 16 16 16 16 16 16 16 16 16 16 16 16 17 17 17 17 17 17 17 17 17 17 17 17 17 17 17 17 17 17 17 17 17 17 17 17 17 17 17 17 17 17 17 17 17 17 17 17 17 17 17 17 19 19 19 19 20 20 20 20 24 24 24 24 23 23 23 23 28 28 28 28 28 28 28 28 25 25 25 25 29 29 29 29 28 28 28 28 29 29 29 29 23 23 23 23 26 26 26 26 26 26 26 26 24 24 24 24 23 23 23 23 25 25 25 25 28 28 28 28 28 28 28 28 27 27 27 27 27 27 27 27 31 31 31 31 31 31 31 31 31 31 31 31 30 30 30 30 33 33 33 33 36 36 36 36 38 38 38 38 37 37 37 37 40 40 40 40 40 40 40 40 41 41 41 41 42 42 42 42 42 42 42 42 47 47 47 47 48 48 48 48 50 50 50 50 51 51 51 51 51 51 51 51 49 49 49 49 54 54 54 54 56 56 56 56 57 57 57 57 48 48 48 48 45 45 45 45 37 37 37 37 34 34 34 34 36 36 36 36 34 34 34 34 38 38 38 38 32 32 32 32 32 32 32 32 32 32 32 32 32 32 32 32 33 33 33 33 36 36 36 36 38 38 38 38 38 38 38 38 42 42 42 42 44 44 44 44 43 43 43 43 42 42 42 42 40 40 40 40 38 38 38 38 38 38 38 38 32 32 32 32 25 25 25 25 23 23 23 23 25 25 25 25 25 25 25 25 21 21 21 21 20 20 20 20 22 22 22 22 29 29 29 29 36 36 36 36 27 27 27 27 16 16 16 16 16 16 16 16 16 16 16 16 16 16 16 16 16 16 16 16 16 16 16 16 16 16 16 16 16 16 16 16 16 16 16 16 16 16 16 16 17 17 17 17 17 17 17 17 17 17 17 17 17 17 17 17 17 17 17 17 17 17 17 17 17 17 17 17 17 17 17 17 17 17 17 17 17 17 17 17 16 16 16 16 16 16 16 16 16 16 16 16 16 16 16 16 16 16 16 16 16 16 16 16 16 16 16 16 16 16 16 16 16 16 16 16 16 16 16 16 16 16 16 16 16 16 16 16 16 16 16 16 18 18 18 18 20 20 20 20 23 23 23 23 22 22 22 22 21 21 21 21 21 21 21 21 16 16 16 16 19 19 19 19 16 16 16 16 17 17 17 17 17 17 17 17 17 17 17 17 17 17 17 17 17 17 17 17 15 15 15 15 15 15 15 15 15 15 15 15 15 15 15 15 12 12 12 12 15 15 15 15 15 15 15 15 14 14 14 14 15 15 15 15 14 14 14 14 17 17 17 17 17 17 17 17 14 14 14 14 14 14 14 14 14 14 14 14 15 15 15 15 12 12 12 12 14 14 14 14 14 14 14 14 19 19 19 19 16 16 16 16 14 14 14 14 17 17 17 17 16 16 16 16 14 14 14 14 16 16 16 16 14 14 14 14 12 12 12 12 17 17 17 17 16 16 16 16 16 16 16 16 17 17 17 17 17 17 17 17 16 16 16 16 17 17 17 17 15 15 15 15 16 16 16 16 16 16 16 16 16 16 16 16 16 16 16 16 16 16 16 16 16 16 16 16 16 16 16 16 19 19 19 19 20 20 20 20 21 21 21 21 20 20 20 20 21 21 21 21 21 21 21 21 21 21 21 21 23 23 23 23 24 24 24 24 24 24 24 24 30 30 30 30 34 34 34 34 36 36 36 36 41 41 41 41 45 45 45 45 43 43 43 43 38 38 38 38 38 38 38 38 30 30 30 30 20 20 20 20 15 15 15 15 12 12 12 12 12 12 12 12 12 12 12 12 12 12 12 12 10 10 10 10 10 10 10 10 9 9 9 9 9 9 9 9 12 12 12 12
30 30 30 30 31 31 31 31 31 31 31 31 31 31 31 31 30 30 30 30 30 30 30 30 30 30 30 30 33 33 33 33 30 30 30 30 30 30 30 30 31 31 31 31 31 31 31 31 33 33 33 33 30 30 30 30 31 31 31 31 29 29 29 29 23 23 23 23 26 26 26 26 26 26 26 26 23 23 23 23 27 27 27 27 30 30 30 30 33 33 33 33 32 32 32 32 33 33 33 33 30 30 30 30 31 31 31 31 30 30 30 30 33 33 33 33 32 32 32 32 34 34 34 34 38 38 38 38 39 39 39 39 37 37 37 37 30 30 30 30 28 28 28 28 26 26 26 26 22 22 22 22 16 16 16 16 16 16 16 16 16 16 16 16 16 16 16 16 16 16 16 16 17 17 17 17 17 17 17 17 17 17 17 17 17 17 17 17 17 17 17 17 17 17 17 17 17 17 17 17 17 17 17 17 17 17 17 17 17 17 17 17 19 19 19 19 20 20 20 20 24 24 24 24 23 23 23 23 28 28 28 28 28 28 28 28 25 25 25 25 29 29 29 29 28 28 28 28 29 29 29 29 23 23 23 23 26 26 26 26 26 26 26 26 24 24 24 24 23 23 23 23 25 25 25 25 28 28 28 28 28 28 28 28 27 27 27 27 27 27 27 27 31 31 31 31 31 31 31 31 31 31 31 31 30 30 30 30 33 33 33 33 36 36 36 36 38 38 38 38 37 37 37 37 40 40 40 40 40 40 40 40 41 41 41 41 42 42 42 42 42 42 42 42 47 47 47 47 48 48 48 48 50 50 50 50 51 51 51 51 51 51 51 51 49 49 49 49 54 54 54 54 56 56 56 56 57 57 57 57 48 48 48 48 45 45 45 45 37 37 37 37 34 34 34 34 36 36 36 36 34 34 34 34 38 38 38 38 32 32 32 32 32 32 32 32 32 32 32 32 32 32 32 32 33 33 33 33 36 36 36 36 38 38 38 38 38 38 38 38 42 42 42 42 44 44 44 44 43 43 43 43 42 42 42 42 40 40 40 40 38 38 38 38 38 38 38 38 32 32 32 32 25 25 25 25 23 23 23 23 25 25 25 25 25 25 25 25 21 21 21 21 20 20 20 20 22 22 22 22 29 29 29 29 36 36 36 36 27 27 27 27 16 16 16 16 16 16 16 16 16 16 16 16 16 16 16 16 16 16 16 16 16 16 16 16 16 16 16 16 16 16 16 16 16 16 16 16 16 16 16 16 17 17 17 17 17 17 17 17 17 17 17 17 17 17 17 17 17 17 17 17 17 17 17 17 17 17 17 17 17 17 17 17 17 17 17 17 17 17 17 17 16 16 16 16 16 16 16 16 16 16 16 16 16 16 16 16 16 16 16 16 16 16 16 16 16 16 16 16 16 16 16 16 16 16 16 16 16 16 16 16 16 16 16 16 16 16 16 16 16 16 16 16 18 18 18 18 20 20 20 20 23 23 23 23 22 22 22 22 21 21 21 21 21 21 21 21 16 16 16 16 19 19 19 19 16 16 16 16 17 17 17 17 17 17 17 17 17 17 17 17 17 17 17 17 17 17 17 17 15 15 15 15 15 15 15 15 15 15 15 15 15 15 15 15 12 12 12 12 15 15 15 15 15 15 15 15 14 14 14 14 15 15 15 15 14 14 14 14 17 17 17 17 17 17 17 17 14 14 14 14 14 14 14 14 14 14 14 14 15 15 15 15 12 12 12 12 14 14 14 14 14 14 14 14 19 19 19 19 16 16 16 16 14 14 14 14 17 17 17 17 16 16 16 16 14 14 14 14 16 16 16 16 14 14 14 14 12 12 12 12 17 17 17 17 16 16 16 16 16 16 16 16 17 17 17 17 17 17 17 17 16 16 16 16 17 17 17 17 15 15 15 15 16 16 16 16 16 16 16 16 16 16 16 16 16 16 16 16 16 16 16 16 16 16 16 16 16 16 16 16 19 19 19 19 20 20 20 20 21 21 21 21 20 20 20 20 21 21 21 21 21 21 21 21 21 21 21 21 23 23 23 23 24 24 24 24 24 24 24 24 30 30 30 30 34 34 34 34 36 36 36 36 41 41 41 41 45 45 45 45 43 43 43 43 38 38 38 38 38 38 38 38 30 30 30 30 20 20 20 20 15 15 15 15 12 12 12 12 12 12 12 12 12 12 12 12 12 12 12 12 10 10 10 10 10 10 10 10 9 9 9 9 9 9 9 9 12 12 12 12
30 30 30 30 31 31 31 31 31 31 31 31 31 31 31 31 30 30 30 30 30 30 30 30 30 30 30 30 33 33 33 33 30 30 30 30 30 30 30 30 31 31 31 31 31 31 31 31 33 33 33 33 30 30 30 30 31 31 31 31 29 29 29 29 23 23 23 23 26 26 26 26 26 26 26 26 23 23 23 23 27 27 27 27 30 30 30 30 33 33 33 33 32 32 32 32 33 33 33 33 30 30 30 30 31 31 31 31 30 30 30 30 33 33 33 33 32 32 32 32 34 34 34 34 38 38 38 38 39 39 39 39 37 37 37 37 30 30 30 30 28 28 28 28 26 26 26 26 22 22 22 22 16 16 16 16 16 16 16 16 16 16 16 16 16 16 16 16 16 16 16 16 17 17 17 17 17 17 17 17 17 17 17 17 17 17 17 17 17 17 17 17 17 17 17 17 17 17 17 17 17 17 17 17 17 17 17 17 17 17 17 17 19 19 19 19 20 20 20 20 24 24 24 24 23 23 23 23 28 28 28 28 28 28 28 28 25 25 25 25 29 29 29 29 28 28 28 28 29 29 29 29 23 23 23 23 26 26 26 26 26 26 26 26 24 24 24 24 23 23 23 23 25 25 25 25 28 28 28 28 28 28 28 28 27 27 27 27 27 27 27 27 31 31 31 31 31 31 31 31 31 31 31 31 30 30 30 30 33 33 33 33 36 36 36 36 38 38 38 38 37 37 37 37 40 40 40 40 40 40 40 40 41 41 41 41 42 42 42 42 42 42 42 42 47 47 47 47 48 48 48 48 50 50 50 50 51 51 51 51 51 51 51 51 49 49 49 49 54 54 54 54 56 56 56 56 57 57 57 57 48 48 48 48 45 45 45 45 37 37 37 37 34 34 34 34 36 36 36 36 34 34 34 34 38 38 38 38 32 32 32 32 32 32 32 32 32 32 32 32 32 32 32 32 33 33 33 33 36 36 36 36 38 38 38 38 38 38 38 38 42 42 42 42 44 44 44 44 43 43 43 43 42 42 42 42 40 40 40 40 38 38 38 38 38 38 38 38 32 32 32 32 25 25 25 25 23 23 23 23 25 25 25 25 25 25 25 25 21 21 21 21 20 20 20 20 22 22 22 22 29 29 29 29 36 36 36 36 27 27 27 27 16 16 16 16 16 16 16 16 16 16 16 16 16 16 16 16 16 16 16 16 16 16 16 16 16 16 16 16 16 16 16 16 16 16 16 16 16 16 16 16 17 17 17 17 17 17 17 17 17 17 17 17 17 17 17 17 17 17 17 17 17 17 17 17 17 17 17 17 17 17 17 17 17 17 17 17 17 17 17 17 16 16 16 16 16 16 16 16 16 16 16 16 16 16 16 16 16 16 16 16 16 16 16 16 16 16 16 16 16 16 16 16 16 16 16 16 16 16 16 16 16 16 16 16 16 16 16 16 16 16 16 16 18 18 18 18 20 20 20 20 23 23 23 23 22 22 22 22 21 21 21 21 21 21 21 21 16 16 16 16 19 19 19 19 16 16 16 16 17 17 17 17 17 17 17 17 17 17 17 17 17 17 17 17 17 17 17 17 15 15 15 15 15 15 15 15 15 15 15 15 15 15 15 15 12 12 12 12 15 15 15 15 15 15 15 15 14 14 14 14 15 15 15 15 14 14 14 14 17 17 17 17 17 17 17 17 14 14 14 14 14 14 14 14 14 14 14 14 15 15 15 15 12 12 12 12 14 14 14 14 14 14 14 14 19 19 19 19 16 16 16 16 14 14 14 14 17 17 17 17 16 16 16 16 14 14 14 14 16 16 16 16 14 14 14 14 12 12 12 12 17 17 17 17 16 16 16 16 16 16 16 16 17 17 17 17 17 17 17 17 16 16 16 16 17 17 17 17 15 15 15 15 16 16 16 16 16 16 16 16 16 16 16 16 16 16 16 16 16 16 16 16 16 16 16 16 16 16 16 16 19 19 19 19 20 20 20 20 21 21 21 21 20 20 20 20 21 21 21 21 21 21 21 21 21 21 21 21 23 23 23 23 24 24 24 24 24 24 24 24 30 30 30 30 34 34 34 34 36 36 36 36 41 41 41 41 45 45 45 45 43 43 43 43 38 38 38 38 38 38 38 38 30 30 30 30 20 20 20 20 15 15 15 15 12 12 12 12 12 12 12 12 12 12 12 12 12 12 12 12 10 10 10 10 10 10 10 10 9 9 9 9 9 9 9 9 12 12 12 12
30 30 30 30 31 31 31 31 31 31 31 31 31 31 31 31 30 30 30 30 30 30 30 30 30 30 30 30 33 33 33 33 30 30 30 30 30 30 30 30 31 31 31 31 31 31 31 31 33 33 33 33 30 30 30 30 31 31 31 31 29 29 29 29 23 23 23 23 26 26 26 26 26 26 26 26 23 23 23 23 27 27 27 27 30 30 30 30 33 33 33 33 32 32 32 32 33 33 33 33 30 30 30 30 31 31 31 31 30 30 30 30 33 33 33 33 32 32 32 32 34 34 34 34 38 38 38 38 39 39 39 39 37 37 37 37 30 30 30 30 28 28 28 28 26 26 26 26 22 22 22 22 16 16 16 16 16 16 16 16 16 16 16 16 16 16 16 16 16 16 16 16 17 17 17 17 17 17 17 17 17 17 17 17 17 17 17 17 17 17 17 17 17 17 17 17 17 17 17 17 17 17 17 17 17 17 17 17 17 17 17 17 19 19 19 19 20 20 20 20 24 24 24 24 23 23 23 23 28 28 28 28 28 28 28 28 25 25 25 25 29 29 29 29 28 28 28 28 29 29 29 29 23 23 23 23 26 26 26 26 26 26 26 26 24 24 24 24 23 23 23 23 25 25 25 25 28 28 28 28 28 28 28 28 27 27 27 27 27 27 27 27 31 31 31 31 31 31 31 31 31 31 31 31 30 30 30 30 33 33 33 33 36 36 36 36 38 38 38 38 37 37 37 37 40 40 40 40 40 40 40 40 41 41 41 41 42 42 42 42 42 42 42 42 47 47 47 47 48 48 48 48 50 50 50 50 51 51 51 51 51 51 51 51 49 49 49 49 54 54 54 54 56 56 56 56 57 57 57 57 48 48 48 48 45 45 45 45 37 37 37 37 34 34 34 34 36 36 36 36 34 34 34 34 38 38 38 38 32 32 32 32 32 32 32 32 32 32 32 32 32 32 32 32 33 33 33 33 36 36 36 36 38 38 38 38 38 38 38 38 42 42 42 42 44 44 44 44 43 43 43 43 42 42 42 42 40 40 40 40 38 38 38 38 38 38 38 38 32 32 32 32 25 25 25 25 23 23 23 23 25 25 25 25 25 25 25 25 21 21 21 21 20 20 20 20 22 22 22 22 29 29 29 29 36 36 36 36 27 27 27 27 16 16 16 16 16 16 16 16 16 16 16 16 16 16 16 16 16 16 16 16 16 16 16 16 16 16 16 16 16 16 16 16 16 16 16 16 16 16 16 16 17 17 17 17 17 17 17 17 17 17 17 17 17 17 17 17 17 17 17 17 17 17 17 17 17 17 17 17 17 17 17 17 17 17 17 17 17 17 17 17 16 16 16 16 16 16 16 16 16 16 16 16 16 16 16 16 16 16 16 16 16 16 16 16 16 16 16 16 16 16 16 16 16 16 16 16 16 16 16 16 16 16 16 16 16 16 16 16 16 16 16 16 18 18 18 18 20 20 20 20 23 23 23 23 22 22 22 22 21 21 21 21 21 21 21 21 16 16 16 16 19 19 19 19 16 16 16 16 17 17 17 17 17 17 17 17 17 17 17 17 17 17 17 17 17 17 17 17 15 15 15 15 15 15 15 15 15 15 15 15 15 15 15 15 12 12 12 12 15 15 15 15 15 15 15 15 14 14 14 14 15 15 15 15 14 14 14 14 17 17 17 17 17 17 17 17 14 14 14 14 14 14 14 14 14 14 14 14 15 15 15 15 12 12 12 12 14 14 14 14 14 14 14 14 19 19 19 19 16 16 16 16 14 14 14 14 17 17 17 17 16 16 16 16 14 14 14 14 16 16 16 16 14 14 14 14 12 12 12 12 17 17 17 17 16 16 16 16 16 16 16 16 17 17 17 17 17 17 17 17 16 16 16 16 17 17 17 17 15 15 15 15 16 16 16 16 16 16 16 16 16 16 16 16 16 16 16 16 16 16 16 16 16 16 16 16 16 16 16 16 19 19 19 19 20 20 20 20 21 21 21 21 20 20 20 20 21 21 21 21 21 21 21 21 21 21 21 21 23 23 23 23 24 24 24 24 24 24 24 24 30 30 30 30 34 34 34 34 36 36 36 36 41 41 41 41 45 45 45 45 43 43 43 43 38 38 38 38 38 38 38 38 30 30 30 30 20 20 20 20 15 15 15 15 12 12 12 12 12 12 12 12 12 12 12 12 12 12 12 12 10 10 10 10 10 10 10 10 9 9 9 9 9 9 9 9 12 12 12 12
31 31 31 31 30 30 30 30 30 30 30 30 31 31 31 31 31 31 31 31 30 30 30 30 32 32 32 32 36 36 36 36 33 33 33 33 33 33 33 33 30 30 30 30 31 31 31 31 30 30 30 30 31 31 31 31 31 31 31 31 29 29 29 29 25 25 25 25 26 26 26 26 21 21 21 21 26 26 26 26 24 24 24 24 28 28 28 28 27 27 27 27 31 31 31 31 33 33 33 33 30 30 30 30 30 30 30 30 30 30 30 30 32 32 32 32 36 36 36 36 38 38 38 38 39 39 39 39 39 39 39 39 38 38 38 38 30 30 30 30 25 25 25 25 21 21 21 21 20 20 20 20 16 16 16 16 16 16 16 16 16 16 16 16 16 16 16 16 16 16 16 16 16 16 16 16 17 17 17 17 17 17 17 17 17 17 17 17 17 17 17 17 17 17 17 17 17 17 17 17 17 17 17 17 17 17 17 17 17 17 17 17 16 16 16 16 20 20 20 20 21 21 21 21 24 24 24 24 23 23 23 23 23 23 23 23 24 24 24 24 23 23 23 23 25 25 25 25 28 28 28 28 23 23 23 23 26 26 26 26 24 24 24 24 24 24 24 24 23 23 23 23 25 25 25 25 28 28 28 28 27 27 27 27 27 27 27 27 27 27 27 27 27 27 27 27 31 31 31 31 31 31 31 31 31 31 31 31 30 30 30 30 32 32 32 32 38 38 38 38 39 39 39 39 37 37 37 37 38 38 38 38 39 39 39 39 40 40 40 40 37 37 37 37 45 45 45 45 48 48 48 48 49 49 49 49 50 50 50 50 49 49 49 49 49 49 49 49 48 48 48 48 54 54 54 54 57 57 57 57 58 58 58 58 56 56 56 56 45 45 45 45 44 44 44 44 43 43 43 43 48 48 48 48 44 44 44 44 39 39 39 39 42 42 42 42 40 40 40 40 39 39 39 39 38 38 38 38 34 34 34 34 43 43 43 43 43 43 43 43 42 42 42 42 45 45 45 45 48 48 48 48 48 48 48 48 44 44 44 44 37 37 37 37 39 39 39 39 37 37 37 37 32 32 32 32 25 25 25 25 29 29 29 29 28 28 28 28 26 26 26 26 26 26 26 26 31 31 31 31 32 32 32 32 38 38 38 38 30 30 30 30 21 21 21 21 19 19 19 19 19 19 19 19 19 19 19 19 19 19 19 19 19 19 19 19 19 19 19 19 16 16 16 16 16 16 16 16 16 16 16 16 16 16 16 16 16 16 16 16 16 16 16 16 17 17 17 17 17 17 17 17 17 17 17 17 16 16 16 16 16 16 16 16 17 17 17 17 17 17 17 17 17 17 17 17 16 16 16 16 16 16 16 16 16 16 16 16 16 16 16 16 16 16 16 16 16 16 16 16 16 16 16 16 16 16 16 16 16 16 16 16 16 16 16 16 16 16 16 16 18 18 18 18 20 20 20 20 22 22 22 22 22 22 22 22 20 20 20 20 21 21 21 21 26 26 26 26 24 24 24 24 21 21 21 21 19 19 19 19 16 16 16 16 16 16 16 16 16 16 16 16 16 16 16 16 16 16 16 16 14 14 14 14 15 15 15 15 12 12 12 12 12 12 12 12 12 12 12 12 15 15 15 15 15 15 15 15 14 14 14 14 14 14 14 14 17 17 17 17 17 17 17 17 17 17 17 17 17 17 17 17 14 14 14 14 15 15 15 15 12 12 12 12 14 14 14 14 14 14 14 14 15 15 15 15 14 14 14 14 14 14 14 14 15 15 15 15 16 16 16 16 16 16 16 16 17 17 17 17 17 17 17 17 17 17 17 17 16 16 16 16 16 16 16 16 19 19 19 19 17 17 17 17 15 15 15 15 17 17 17 17 17 17 17 17 15 15 15 15 14 14 14 14 16 16 16 16 17 17 17 17 17 17 17 17 16 16 16 16 16 16 16 16 16 16 16 16 16 16 16 16 19 19 19 19 18 18 18 18 20 20 20 20 20 20 20 20 19 19 19 19 18 18 18 18 25 25 25 25 31 31 31 31 29 29 29 29 20 20 20 20 30 30 30 30 34 34 34 34 37 37 37 37 43 43 43 43 48 48 48 48 48 48 48 48 42 42 42 42 43 43 43 43 34 34 34 34 23 23 23 23 14 14 14 14 12 12 12 12 12 12 12 12 12 12 12 12 11 11 11 11 10 10 10 10 9 9 9 9 9 9 9 9 9 9 9 9 12 12 12 12
31 31 31 31 30 30 30 30 30 30 30 30 31 31 31 31 31 31 31 31 30 30 30 30 32 32 32 32 36 36 36 36 33 33 33 33 33 33 33 33 30 30 30 30 31 31 31 31 30 30 30 30 31 31 31 31 31 31 31 31 29 29 29 29 25 25 25 25 26 26 26 26 21 21 21 21 26 26 26 26 24 24 24 24 28 28 28 28 27 27 27 27 31 31 31 31 33 33 33 33 30 30 30 30 30 30 30 30 30 30 30 30 32 32 32 32 36 36 36 36 38 38 38 38 39 39 39 39 39 39 39 39 38 38 38 38 30 30 30 30 25 25 25 25 21 21 21 21 20 20 20 20 16 16 16 16 16 16 16 16 16 16 16 16 16 16 16 16 16 16 16 16 16 16 16 16 17 17 17 17 17 17 17 17 17 17 17 17 17 17 17 17 17 17 17 17 17 17 17 17 17 17 17 17 17 17 17 17 17 17 17 17 16 16 16 16 20 20 20 20 21 21 21 21 24 24 24 24 23 23 23 23 23 23 23 23 24 24 24 24 23 23 23 23 25 25 25 25 28 28 28 28 23 23 23 23 26 26 26 26 24 24 24 24 24 24 24 24 23 23 23 23 25 25 25 25 28 28 28 28 27 27 27 27 27 27 27 27 27 27 27 27 27 27 27 27 31 31 31 31 31 31 31 31 31 31 31 31 30 30 30 30 32 32 32 32 38 38 38 38 39 39 39 39 37 37 37 37 38 38 38 38 39 39 39 39 40 40 40 40 37 37 37 37 45 45 45 45 48 48 48 48 49 49 49 49 50 50 50 50 49 49 49 49 49 49 49 49 48 48 48 48 54 54 54 54 57 57 57 57 58 58 58 58 56 56 56 56 45 45 45 45 44 44 44 44 43 43 43 43 48 48 48 48 44 44 44 44 39 39 39 39 42 42 42 42 40 40 40 40 39 39 39 39 38 38 38 38 34 34 34 34 43 43 43 43 43 43 43 43 42 42 42 42 45 45 45 45 48 48 48 48 48 48 48 48 44 44 44 44 37 37 37 37 39 39 39 39 37 37 37 37 32 32 32 32 25 25 25 25 29 29 29 29 28 28 28 28 26 26 26 26 26 26 26 26 31 31 31 31 32 32 32 32 38 38 38 38 30 30 30 30 21 21 21 21 19 19 19 19 19 19 19 19 19 19 19 19 19 19 19 19 19 19 19 19 19 19 19 19 16 16 16 16 16 16 16 16 16 16 16 16 16 16 16 16 16 16 16 16 16 16 16 16 17 17 17 17 17 17 17 17 17 17 17 17 16 16 16 16 16 16 16 16 17 17 17 17 17 17 17 17 17 17 17 17 16 16 16 16 16 16 16 16 16 16 16 16 16 16 16 16 16 16 16 16 16 16 16 16 16 16 16 16 16 16 16 16 16 16 16 16 16 16 16 16 16 16 16 16 18 18 18 18 20 20 20 20 22 22 22 22 22 22 22 22 20 20 20 20 21 21 21 21 26 26 26 26 24 24 24 24 21 21 21 21 19 19 19 19 16 16 16 16 16 16 16 16 16 16 16 16 16 16 16 16 16 16 16 16 14 14 14 14 15 15 15 15 12 12 12 12 12 12 12 12 12 12 12 12 15 15 15 15 15 15 15 15 14 14 14 14 14 14 14 14 17 17 17 17 17 17 17 17 17 17 17 17 17 17 17 17 14 14 14 14 15 15 15 15 12 12 12 12 14 14 14 14 14 14 14 14 15 15 15 15 14 14 14 14 14 14 14 14 15 15 15 15 16 16 16 16 16 16 16 16 17 17 17 17 17 17 17 17 17 17 17 17 16 16 16 16 16 16 16 16 19 19 19 19 17 17 17 17 15 15 15 15 17 17 17 17 17 17 17 17 15 15 15 15 14 14 14 14 16 16 16 16 17 17 17 17 17 17 17 17 16 16 16 16 16 16 16 16 16 16 16 16 16 16 16 16 19 19 19 19 18 18 18 18 20 20 20 20 20 20 20 20 19 19 19 19 18 18 18 18 25 25 25 25 31 31 31 31 29 29 29 29 20 20 20 20 30 30 30 30 34 34 34 34 37 37 37 37 43 43 43 43 48 48 48 48 48 48 48 48 42 42 42 42 43 43 43 43 34 34 34 34 23 23 23 23 14 14 14 14 12 12 12 12 12 12 12 12 12 12 12 12 11 11 11 11 10 10 10 10 9 9 9 9 9 9 9 9 9 9 9 9 12 12 12 12
31 31 31 31 30 30 30 30 30 30 30 30 31 31 31 31 31 31 31 31 30 30 30 30 32 32 32 32 36 36 36 36 33 33 33 33 33 33 33 33 30 30 30 30 31 31 31 31 30 30 30 30 31 31 31 31 31 31 31 31 29 29 29 29 25 25 25 25 26 26 26 26 21 21 21 21 26 26 26 26 24 24 24 24 28 28 28 28 27 27 27 27 31 31 31 31 33 33 33 33 30 30 30 30 30 30 30 30 30 30 30 30 32 32 32 32 36 36 36 36 38 38 38 38 39 39 39 39 39 39 39 39 38 38 38 38 30 30 30 30 25 25 25 25 21 21 21 21 20 20 20 20 16 16 16 16 16 16 16 16 16 16 16 16 16 16 16 16 16 16 16 16 16 16 16 16 17 17 17 17 17 17 17 17 17 17 17 17 17 17 17 17 17 17 17 17 17 17 17 17 17 17 17 17 17 17 17 17 17 17 17 17 16 16 16 16 20 20 20 20 21 21 21 21 24 24 24 24 23 23 23 23 23 23 23 23 24 24 24 24 23 23 23 23 25 25 25 25 28 28 28 28 23 23 23 23 26 26 26 26 24 24 24 24 24 24 24 24 23 23 23 23 25 25 25 25 28 28 28 28 27 27 27 27 27 27 27 27 27 27 27 27 27 27 27 27 31 31 31 31 31 31 31 31 31 31 31 31 30 30 30 30 32 32 32 32 38 38 38 38 39 39 39 39 37 37 37 37 38 38 38 38 39 39 39 39 40 40 40 40 37 37 37 37 45 45 45 45 48 48 48 48 49 49 49 49 50 50 50 50 49 49 49 49 49 49 49 49 48 48 48 48 54 54 54 54 57 57 57 57 58 58 58 58 56 56 56 56 45 45 45 45 44 44 44 44 43 43 43 43 48 48 48 48 44 44 44 44 39 39 39 39 42 42 42 42 40 40 40 40 39 39 39 39 38 38 38 38 34 34 34 34 43 43 43 43 43 43 43 43 42 42 42 42 45 45 45 45 48 48 48 48 48 48 48 48 44 44 44 44 37 37 37 37 39 39 39 39 37 37 37 37 32 32 32 32 25 25 25 25 29 29 29 29 28 28 28 28 26 26 26 26 26 26 26 26 31 31 31 31 32 32 32 32 38 38 38 38 30 30 30 30 21 21 21 21 19 19 19 19 19 19 19 19 19 19 19 19 19 19 19 19 19 19 19 19 19 19 19 19 16 16 16 16 16 16 16 16 16 16 16 16 16 16 16 16 16 16 16 16 16 16 16 16 17 17 17 17 17 17 17 17 17 17 17 17 16 16 16 16 16 16 16 16 17 17 17 17 17 17 17 17 17 17 17 17 16 16 16 16 16 16 16 16 16 16 16 16 16 16 16 16 16 16 16 16 16 16 16 16 16 16 16 16 16 16 16 16 16 16 16 16 16 16 16 16 16 16 16 16 18 18 18 18 20 20 20 20 22 22 22 22 22 22 22 22 20 20 20 20 21 21 21 21 26 26 26 26 24 24 24 24 21 21 21 21 19 19 19 19 16 16 16 16 16 16 16 16 16 16 16 16 16 16 16 16 16 16 16 16 14 14 14 14 15 15 15 15 12 12 12 12 12 12 12 12 12 12 12 12 15 15 15 15 15 15 15 15 14 14 14 14 14 14 14 14 17 17 17 17 17 17 17 17 17 17 17 17 17 17 17 17 14 14 14 14 15 15 15 15 12 12 12 12 14 14 14 14 14 14 14 14 15 15 15 15 14 14 14 14 14 14 14 14 15 15 15 15 16 16 16 16 16 16 16 16 17 17 17 17 17 17 17 17 17 17 17 17 16 16 16 16 16 16 16 16 19 19 19 19 17 17 17 17 15 15 15 15 17 17 17 17 17 17 17 17 15 15 15 15 14 14 14 14 16 16 16 16 17 17 17 17 17 17 17 17 16 16 16 16 16 16 16 16 16 16 16 16 16 16 16 16 19 19 19 19 18 18 18 18 20 20 20 20 20 20 20 20 19 19 19 19 18 18 18 18 25 25 25 25 31 31 31 31 29 29 29 29 20 20 20 20 30 30 30 30 34 34 34 34 37 37 37 37 43 43 43 43 48 48 48 48 48 48 48 48 42 42 42 42 43 43 43 43 34 34 34 34 23 23 23 23 14 14 14 14 12 12 12 12 12 12 12 12 12 12 12 12 11 11 11 11 10 10 10 10 9 9 9 9 9 9 9 9 9 9 9 9 12 12 12 12
31 31 31 31 30 30 30 30 30 30 30 30 31 31 31 31 31 31 31 31 30 30 30 30 32 32 32 32 36 36 36 36 33 33 33 33 33 33 33 33 30 30 30 30 31 31 31 31 30 30 30 30 31 31 31 31 31 31 31 31 29 29 29 29 25 25 25 25 26 26 26 26 21 21 21 21 26 26 26 26 24 24 24 24 28 28 28 28 27 27 27 27 31 31 31 31 33 33 33 33 30 30 30 30 30 30 30 30 30 30 30 30 32 32 32 32 36 36 36 36 38 38 38 38 39 39 39 39 39 39 39 39 38 38 38 38 30 30 30 30 25 25 25 25 21 21 21 21 20 20 20 20 16 16 16 16 16 16 16 16 16 16 16 16 16 16 16 16 16 16 16 16 16 16 16 16 17 17 17 17 17 17 17 17 17 17 17 17 17 17 17 17 17 17 17 17 17 17 17 17 17 17 17 17 17 17 17 17 17 17 17 17 16 16 16 16 20 20 20 20 21 21 21 21 24 24 24 24 23 23 23 23 23 23 23 23 24 24 24 24 23 23 23 23 25 25 25 25 28 28 28 28 23 23 23 23 26 26 26 26 24 24 24 24 24 24 24 24 23 23 23 23 25 25 25 25 28 28 28 28 27 27 27 27 27 27 27 27 27 27 27 27 27 27 27 27 31 31 31 31 31 31 31 31 31 31 31 31 30 30 30 30 32 32 32 32 38 38 38 38 39 39 39 39 37 37 37 37 38 38 38 38 39 39 39 39 40 40 40 40 37 37 37 37 45 45 45 45 48 48 48 48 49 49 49 49 50 50 50 50 49 49 49 49 49 49 49 49 48 48 48 48 54 54 54 54 57 57 57 57 58 58 58 58 56 56 56 56 45 45 45 45 44 44 44 44 43 43 43 43 48 48 48 48 44 44 44 44 39 39 39 39 42 42 42 42 40 40 40 40 39 39 39 39 38 38 38 38 34 34 34 34 43 43 43 43 43 43 43 43 42 42 42 42 45 45 45 45 48 48 48 48 48 48 48 48 44 44 44 44 37 37 37 37 39 39 39 39 37 37 37 37 32 32 32 32 25 25 25 25 29 29 29 29 28 28 28 28 26 26 26 26 26 26 26 26 31 31 31 31 32 32 32 32 38 38 38 38 30 30 30 30 21 21 21 21 19 19 19 19 19 19 19 19 19 19 19 19 19 19 19 19 19 19 19 19 19 19 19 19 16 16 16 16 16 16 16 16 16 16 16 16 16 16 16 16 16 16 16 16 16 16 16 16 17 17 17 17 17 17 17 17 17 17 17 17 16 16 16 16 16 16 16 16 17 17 17 17 17 17 17 17 17 17 17 17 16 16 16 16 16 16 16 16 16 16 16 16 16 16 16 16 16 16 16 16 16 16 16 16 16 16 16 16 16 16 16 16 16 16 16 16 16 16 16 16 16 16 16 16 18 18 18 18 20 20 20 20 22 22 22 22 22 22 22 22 20 20 20 20 21 21 21 21 26 26 26 26 24 24 24 24 21 21 21 21 19 19 19 19 16 16 16 16 16 16 16 16 16 16 16 16 16 16 16 16 16 16 16 16 14 14 14 14 15 15 15 15 12 12 12 12 12 12 12 12 12 12 12 12 15 15 15 15 15 15 15 15 14 14 14 14 14 14 14 14 17 17 17 17 17 17 17 17 17 17 17 17 17 17 17 17 14 14 14 14 15 15 15 15 12 12 12 12 14 14 14 14 14 14 14 14 15 15 15 15 14 14 14 14 14 14 14 14 15 15 15 15 16 16 16 16 16 16 16 16 17 17 17 17 17 17 17 17 17 17 17 17 16 16 16 16 16 16 16 16 19 19 19 19 17 17 17 17 15 15 15 15 17 17 17 17 17 17 17 17 15 15 15 15 14 14 14 14 16 16 16 16 17 17 17 17 17 17 17 17 16 16 16 16 16 16 16 16 16 16 16 16 16 16 16 16 19 19 19 19 18 18 18 18 20 20 20 20 20 20 20 20 19 19 19 19 18 18 18 18 25 25 25 25 31 31 31 31 29 29 29 29 20 20 20 20 30 30 30 30 34 34 34 34 37 37 37 37 43 43 43 43 48 48 48 48 48 48 48 48 42 42 42 42 43 43 43 43 34 34 34 34 23 23 23 23 14 14 14 14 12 12 12 12 12 12 12 12 12 12 12 12 11 11 11 11 10 10 10 10 9 9 9 9 9 9 9 9 9 9 9 9 12 12 12 12
32 32 32 32 33 33 33 33 30 30 30 30 30 30 30 30 33 33 33 33 32 32 32 32 38 38 38 38 43 43 43 43 46 46 46 46 45 45 45 45 37 37 37 37 33 33 33 33 31 31 31 31 31 31 31 31 31 31 31 31 27 27 27 27 25 25 25 25 26 26 26 26 21 21 21 21 21 21 21 21 21 21 21 21 24 24 24 24 25 25 25 25 27 27 27 27 31 31 31 31 31 31 31 31 31 31 31 31 30 30 30 30 32 32 32 32 32 32 32 32 38 38 38 38 38 38 38 38 38 38 38 38 38 38 38 38 31 31 31 31 23 23 23 23 21 21 21 21 20 20 20 20 19 19 19 19 16 16 16 16 16 16 16 16 16 16 16 16 16 16 16 16 16 16 16 16 17 17 17 17 17 17 17 17 17 17 17 17 17 17 17 17 17 17 17 17 17 17 17 17 17 17 17 17 17 17 17 17 16 16 16 16 16 16 16 16 20 20 20 20 20 20 20 20 22 22 22 22 26 26 26 26 24 24 24 24 21 21 21 21 24 24 24 24 23 23 23 23 25 25 25 25 24 24 24 24 21 21 21 21 24 24 24 24 23 23 23 23 23 23 23 23 28 28 28 28 28 28 28 28 27 27 27 27 27 27 27 27 31 31 31 31 31 31 31 31 31 31 31 31 30 30 30 30 30 30 30 30 30 30 30 30 38 38 38 38 40 40 40 40 38 38 38 38 38 38 38 38 38 38 38 38 38 38 38 38 38 38 38 38 39 39 39 39 43 43 43 43 48 48 48 48 52 52 52 52 57 57 57 57 53 53 53 53 50 50 50 50 47 47 47 47 48 48 48 48 49 49 49 49 56 56 56 56 52 52 52 52 48 48 48 48 50 50 50 50 50 50 50 50 48 48 48 48 49 49 49 49 43 43 43 43 49 49 49 49 50 50 50 50 44 44 44 44 42 42 42 42 40 40 40 40 44 44 44 44 43 43 43 43 44 44 44 44 45 45 45 45 46 46 46 46 46 46 46 46 45 45 45 45 41 41 41 41 39 39 39 39 38 38 38 38 38 38 38 38 27 27 27 27 31 31 31 31 33 33 33 33 27 27 27 27 27 27 27 27 38 38 38 38 38 38 38 38 38 38 38 38 30 30 30 30 23 23 23 23 22 22 22 22 20 20 20 20 20 20 20 20 18 18 18 18 18 18 18 18 18 18 18 18 19 19 19 19 19 19 19 19 16 16 16 16 16 16 16 16 16 16 16 16 16 16 16 16 16 16 16 16 16 16 16 16 16 16 16 16 16 16 16 16 16 16 16 16 17 17 17 17 17 17 17 17 17 17 17 17 16 16 16 16 16 16 16 16 16 16 16 16 16 16 16 16 16 16 16 16 16 16 16 16 16 16 16 16 16 16 16 16 16 16 16 16 16 16 16 16 16 16 16 16 16 16 16 16 20 20 20 20 20 20 20 20 20 20 20 20 20 20 20 20 21 21 21 21 21 21 21 21 26 26 26 26 20 20 20 20 18 18 18 18 20 20 20 20 19 19 19 19 16 16 16 16 16 16 16 16 16 16 16 16 17 17 17 17 12 12 12 12 17 17 17 17 17 17 17 17 17 17 17 17 17 17 17 17 17 17 17 17 17 17 17 17 17 17 17 17 14 14 14 14 14 14 14 14 14 14 14 14 14 14 14 14 14 14 14 14 15 15 15 15 14 14 14 14 14 14 14 14 14 14 14 14 14 14 14 14 14 14 14 14 14 14 14 14 15 15 15 15 15 15 15 15 17 17 17 17 16 16 16 16 14 14 14 14 17 17 17 17 16 16 16 16 17 17 17 17 17 17 17 17 17 17 17 17 17 17 17 17 17 17 17 17 17 17 17 17 12 12 12 12 14 14 14 14 17 17 17 17 17 17 17 17 17 17 17 17 17 17 17 17 16 16 16 16 20 20 20 20 18 18 18 18 20 20 20 20 20 20 20 20 22 22 22 22 22 22 22 22 22 22 22 22 18 18 18 18 29 29 29 29 30 30 30 30 32 32 32 32 23 23 23 23 38 38 38 38 38 38 38 38 41 41 41 41 45 45 45 45 50 50 50 50 50 50 50 50 42 42 42 42 37 37 37 37 38 38 38 38 32 32 32 32 19 19 19 19 12 12 12 12 12 12 12 12 13 13 13 13 10 10 10 10 10 10 10 10 9 9 9 9 9 9 9 9 11 11 11 11 12 12 12 12
32 32 32 32 33 33 33 33 30 30 30 30 30 30 30 30 33 33 33 33 32 32 32 32 38 38 38 38 43 43 43 43 46 46 46 46 45 45 45 45 37 37 37 37 33 33 33 33 31 31 31 31 31 31 31 31 31 31 31 31 27 27 27 27 25 25 25 25 26 26 26 26 21 21 21 21 21 21 21 21 21 21 21 21 24 24 24 24 25 25 25 25 27 27 27 27 31 31 31 31 31 31 31 31 31 31 31 31 30 30 30 30 32 32 32 32 32 32 32 32 38 38 38 38 38 38 38 38 38 38 38 38 38 38 38 38 31 31 31 31 23 23 23 23 21 21 21 21 20 20 20 20 19 19 19 19 16 16 16 16 16 16 16 16 16 16 16 16 16 16 16 16 16 16 16 16 17 17 17 17 17 17 17 17 17 17 17 17 17 17 17 17 17 17 17 17 17 17 17 17 17 17 17 17 17 17 17 17 16 16 16 16 16 16 16 16 20 20 20 20 20 20 20 20 22 22 22 22 26 26 26 26 24 24 24 24 21 21 21 21 24 24 24 24 23 23 23 23 25 25 25 25 24 24 24 24 21 21 21 21 24 24 24 24 23 23 23 23 23 23 23 23 28 28 28 28 28 28 28 28 27 27 27 27 27 27 27 27 31 31 31 31 31 31 31 31 31 31 31 31 30 30 30 30 30 30 30 30 30 30 30 30 38 38 38 38 40 40 40 40 38 38 38 38 38 38 38 38 38 38 38 38 38 38 38 38 38 38 38 38 39 39 39 39 43 43 43 43 48 48 48 48 52 52 52 52 57 57 57 57 53 53 53 53 50 50 50 50 47 47 47 47 48 48 48 48 49 49 49 49 56 56 56 56 52 52 52 52 48 48 48 48 50 50 50 50 50 50 50 50 48 48 48 48 49 49 49 49 43 43 43 43 49 49 49 49 50 50 50 50 44 44 44 44 42 42 42 42 40 40 40 40 44 44 44 44 43 43 43 43 44 44 44 44 45 45 45 45 46 46 46 46 46 46 46 46 45 45 45 45 41 41 41 41 39 39 39 39 38 38 38 38 38 38 38 38 27 27 27 27 31 31 31 31 33 33 33 33 27 27 27 27 27 27 27 27 38 38 38 38 38 38 38 38 38 38 38 38 30 30 30 30 23 23 23 23 22 22 22 22 20 20 20 20 20 20 20 20 18 18 18 18 18 18 18 18 18 18 18 18 19 19 19 19 19 19 19 19 16 16 16 16 16 16 16 16 16 16 16 16 16 16 16 16 16 16 16 16 16 16 16 16 16 16 16 16 16 16 16 16 16 16 16 16 17 17 17 17 17 17 17 17 17 17 17 17 16 16 16 16 16 16 16 16 16 16 16 16 16 16 16 16 16 16 16 16 16 16 16 16 16 16 16 16 16 16 16 16 16 16 16 16 16 16 16 16 16 16 16 16 16 16 16 16 20 20 20 20 20 20 20 20 20 20 20 20 20 20 20 20 21 21 21 21 21 21 21 21 26 26 26 26 20 20 20 20 18 18 18 18 20 20 20 20 19 19 19 19 16 16 16 16 16 16 16 16 16 16 16 16 17 17 17 17 12 12 12 12 17 17 17 17 17 17 17 17 17 17 17 17 17 17 17 17 17 17 17 17 17 17 17 17 17 17 17 17 14 14 14 14 14 14 14 14 14 14 14 14 14 14 14 14 14 14 14 14 15 15 15 15 14 14 14 14 14 14 14 14 14 14 14 14 14 14 14 14 14 14 14 14 14 14 14 14 15 15 15 15 15 15 15 15 17 17 17 17 16 16 16 16 14 14 14 14 17 17 17 17 16 16 16 16 17 17 17 17 17 17 17 17 17 17 17 17 17 17 17 17 17 17 17 17 17 17 17 17 12 12 12 12 14 14 14 14 17 17 17 17 17 17 17 17 17 17 17 17 17 17 17 17 16 16 16 16 20 20 20 20 18 18 18 18 20 20 20 20 20 20 20 20 22 22 22 22 22 22 22 22 22 22 22 22 18 18 18 18 29 29 29 29 30 30 30 30 32 32 32 32 23 23 23 23 38 38 38 38 38 38 38 38 41 41 41 41 45 45 45 45 50 50 50 50 50 50 50 50 42 42 42 42 37 37 37 37 38 38 38 38 32 32 32 32 19 19 19 19 12 12 12 12 12 12 12 12 13 13 13 13 10 10 10 10 10 10 10 10 9 9 9 9 9 9 9 9 11 11 11 11 12 12 12 12
32 32 32 32 33 33 33 33 30 30 30 30 30 30 30 30 33 33 33 33 32 32 32 32 38 38 38 38 43 43 43 43 46 46 46 46 45 45 45 45 37 37 37 37 33 33 33 33 31 31 31 31 31 31 31 31 31 31 31 31 27 27 27 27 25 25 25 25 26 26 26 26 21 21 21 21 21 21 21 21 21 21 21 21 24 24 24 24 25 25 25 25 27 27 27 27 31 31 31 31 31 31 31 31 31 31 31 31 30 30 30 30 32 32 32 32 32 32 32 32 38 38 38 38 38 38 38 38 38 38 38 38 38 38 38 38 31 31 31 31 23 23 23 23 21 21 21 21 20 20 20 20 19 19 19 19 16 16 16 16 16 16 16 16 16 16 16 16 16 16 16 16 16 16 16 16 17 17 17 17 17 17 17 17 17 17 17 17 17 17 17 17 17 17 17 17 17 17 17 17 17 17 17 17 17 17 17 17 16 16 16 16 16 16 16 16 20 20 20 20 20 20 20 20 22 22 22 22 26 26 26 26 24 24 24 24 21 21 21 21 24 24 24 24 23 23 23 23 25 25 25 25 24 24 24 24 21 21 21 21 24 24 24 24 23 23 23 23 23 23 23 23 28 28 28 28 28 28 28 28 27 27 27 27 27 27 27 27 31 31 31 31 31 31 31 31 31 31 31 31 30 30 30 30 30 30 30 30 30 30 30 30 38 38 38 38 40 40 40 40 38 38 38 38 38 38 38 38 38 38 38 38 38 38 38 38 38 38 38 38 39 39 39 39 43 43 43 43 48 48 48 48 52 52 52 52 57 57 57 57 53 53 53 53 50 50 50 50 47 47 47 47 48 48 48 48 49 49 49 49 56 56 56 56 52 52 52 52 48 48 48 48 50 50 50 50 50 50 50 50 48 48 48 48 49 49 49 49 43 43 43 43 49 49 49 49 50 50 50 50 44 44 44 44 42 42 42 42 40 40 40 40 44 44 44 44 43 43 43 43 44 44 44 44 45 45 45 45 46 46 46 46 46 46 46 46 45 45 45 45 41 41 41 41 39 39 39 39 38 38 38 38 38 38 38 38 27 27 27 27 31 31 31 31 33 33 33 33 27 27 27 27 27 27 27 27 38 38 38 38 38 38 38 38 38 38 38 38 30 30 30 30 23 23 23 23 22 22 22 22 20 20 20 20 20 20 20 20 18 18 18 18 18 18 18 18 18 18 18 18 19 19 19 19 19 19 19 19 16 16 16 16 16 16 16 16 16 16 16 16 16 16 16 16 16 16 16 16 16 16 16 16 16 16 16 16 16 16 16 16 16 16 16 16 17 17 17 17 17 17 17 17 17 17 17 17 16 16 16 16 16 16 16 16 16 16 16 16 16 16 16 16 16 16 16 16 16 16 16 16 16 16 16 16 16 16 16 16 16 16 16 16 16 16 16 16 16 16 16 16 16 16 16 16 20 20 20 20 20 20 20 20 20 20 20 20 20 20 20 20 21 21 21 21 21 21 21 21 26 26 26 26 20 20 20 20 18 18 18 18 20 20 20 20 19 19 19 19 16 16 16 16 16 16 16 16 16 16 16 16 17 17 17 17 12 12 12 12 17 17 17 17 17 17 17 17 17 17 17 17 17 17 17 17 17 17 17 17 17 17 17 17 17 17 17 17 14 14 14 14 14 14 14 14 14 14 14 14 14 14 14 14 14 14 14 14 15 15 15 15 14 14 14 14 14 14 14 14 14 14 14 14 14 14 14 14 14 14 14 14 14 14 14 14 15 15 15 15 15 15 15 15 17 17 17 17 16 16 16 16 14 14 14 14 17 17 17 17 16 16 16 16 17 17 17 17 17 17 17 17 17 17 17 17 17 17 17 17 17 17 17 17 17 17 17 17 12 12 12 12 14 14 14 14 17 17 17 17 17 17 17 17 17 17 17 17 17 17 17 17 16 16 16 16 20 20 20 20 18 18 18 18 20 20 20 20 20 20 20 20 22 22 22 22 22 22 22 22 22 22 22 22 18 18 18 18 29 29 29 29 30 30 30 30 32 32 32 32 23 23 23 23 38 38 38 38 38 38 38 38 41 41 41 41 45 45 45 45 50 50 50 50 50 50 50 50 42 42 42 42 37 37 37 37 38 38 38 38 32 32 32 32 19 19 19 19 12 12 12 12 12 12 12 12 13 13 13 13 10 10 10 10 10 10 10 10 9 9 9 9 9 9 9 9 11 11 11 11 12 12 12 12
32 32 32 32 33 33 33 33 30 30 30 30 30 30 30 30 33 33 33 33 32 32 32 32 38 38 38 38 43 43 43 43 46 46 46 46 45 45 45 45 37 37 37 37 33 33 33 33 31 31 31 31 31 31 31 31 31 31 31 31 27 27 27 27 25 25 25 25 26 26 26 26 21 21 21 21 21 21 21 21 21 21 21 21 24 24 24 24 25 25 25 25 27 27 27 27 31 31 31 31 31 31 31 31 31 31 31 31 30 30 30 30 32 32 32 32 32 32 32 32 38 38 38 38 38 38 38 38 38 38 38 38 38 38 38 38 31 31 31 31 23 23 23 23 21 21 21 21 20 20 20 20 19 19 19 19 16 16 16 16 16 16 16 16 16 16 16 16 16 16 16 16 16 16 16 16 17 17 17 17 17 17 17 17 17 17 17 17 17 17 17 17 17 17 17 17 17 17 17 17 17 17 17 17 17 17 17 17 16 16 16 16 16 16 16 16 20 20 20 20 20 20 20 20 22 22 22 22 26 26 26 26 24 24 24 24 21 21 21 21 24 24 24 24 23 23 23 23 25 25 25 25 24 24 24 24 21 21 21 21 24 24 24 24 23 23 23 23 23 23 23 23 28 28 28 28 28 28 28 28 27 27 27 27 27 27 27 27 31 31 31 31 31 31 31 31 31 31 31 31 30 30 30 30 30 30 30 30 30 30 30 30 38 38 38 38 40 40 40 40 38 38 38 38 38 38 38 38 38 38 38 38 38 38 38 38 38 38 38 38 39 39 39 39 43 43 43 43 48 48 48 48 52 52 52 52 57 57 57 57 53 53 53 53 50 50 50 50 47 47 47 47 48 48 48 48 49 49 49 49 56 56 56 56 52 52 52 52 48 48 48 48 50 50 50 50 50 50 50 50 48 48 48 48 49 49 49 49 43 43 43 43 49 49 49 49 50 50 50 50 44 44 44 44 42 42 42 42 40 40 40 40 44 44 44 44 43 43 43 43 44 44 44 44 45 45 45 45 46 46 46 46 46 46 46 46 45 45 45 45 41 41 41 41 39 39 39 39 38 38 38 38 38 38 38 38 27 27 27 27 31 31 31 31 33 33 33 33 27 27 27 27 27 27 27 27 38 38 38 38 38 38 38 38 38 38 38 38 30 30 30 30 23 23 23 23 22 22 22 22 20 20 20 20 20 20 20 20 18 18 18 18 18 18 18 18 18 18 18 18 19 19 19 19 19 19 19 19 16 16 16 16 16 16 16 16 16 16 16 16 16 16 16 16 16 16 16 16 16 16 16 16 16 16 16 16 16 16 16 16 16 16 16 16 17 17 17 17 17 17 17 17 17 17 17 17 16 16 16 16 16 16 16 16 16 16 16 16 16 16 16 16 16 16 16 16 16 16 16 16 16 16 16 16 16 16 16 16 16 16 16 16 16 16 16 16 16 16 16 16 16 16 16 16 20 20 20 20 20 20 20 20 20 20 20 20 20 20 20 20 21 21 21 21 21 21 21 21 26 26 26 26 20 20 20 20 18 18 18 18 20 20 20 20 19 19 19 19 16 16 16 16 16 16 16 16 16 16 16 16 17 17 17 17 12 12 12 12 17 17 17 17 17 17 17 17 17 17 17 17 17 17 17 17 17 17 17 17 17 17 17 17 17 17 17 17 14 14 14 14 14 14 14 14 14 14 14 14 14 14 14 14 14 14 14 14 15 15 15 15 14 14 14 14 14 14 14 14 14 14 14 14 14 14 14 14 14 14 14 14 14 14 14 14 15 15 15 15 15 15 15 15 17 17 17 17 16 16 16 16 14 14 14 14 17 17 17 17 16 16 16 16 17 17 17 17 17 17 17 17 17 17 17 17 17 17 17 17 17 17 17 17 17 17 17 17 12 12 12 12 14 14 14 14 17 17 17 17 17 17 17 17 17 17 17 17 17 17 17 17 16 16 16 16 20 20 20 20 18 18 18 18 20 20 20 20 20 20 20 20 22 22 22 22 22 22 22 22 22 22 22 22 18 18 18 18 29 29 29 29 30 30 30 30 32 32 32 32 23 23 23 23 38 38 38 38 38 38 38 38 41 41 41 41 45 45 45 45 50 50 50 50 50 50 50 50 42 42 42 42 37 37 37 37 38 38 38 38 32 32 32 32 19 19 19 19 12 12 12 12 12 12 12 12 13 13 13 13 10 10 10 10 10 10 10 10 9 9 9 9 9 9 9 9 11 11 11 11 12 12 12 12
32 32 32 32 30 30 30 30 33 33 33 33 38 38 38 38 37 37 37 37 39 39 39 39 42 42 42 42 50 50 50 50 48 48 48 48 54 54 54 54 49 49 49 49 43 43 43 43 32 32 32 32 31 31 31 31 31 31 31 31 27 27 27 27 25 25 25 25 23 23 23 23 24 24 24 24 21 21 21 21 21 21 21 21 21 21 21 21 21 21 21 21 25 25 25 25 27 27 27 27 28 28 28 28 28 28 28 28 31 31 31 31 33 33 33 33 32 32 32 32 36 36 36 36 38 38 38 38 38 38 38 38 32 32 32 32 31 31 31 31 29 29 29 29 26 26 26 26 22 22 22 22 18 18 18 18 19 19 19 19 16 16 16 16 16 16 16 16 16 16 16 16 16 16 16 16 16 16 16 16 17 17 17 17 17 17 17 17 17 17 17 17 17 17 17 17 17 17 17 17 16 16 16 16 16 16 16 16 16 16 16 16 16 16 16 16 18 18 18 18 20 20 20 20 22 22 22 22 22 22 22 22 21 21 21 21 21 21 21 21 26 26 26 26 24 24 24 24 24 24 24 24 21 21 21 21 21 21 21 21 26 26 26 26 23 23 23 23 24 24 24 24 25 25 25 25 28 28 28 28 29 29 29 29 27 27 27 27 31 31 31 31 31 31 31 31 31 31 31 31 30 30 30 30 30 30 30 30 30 30 30 30 36 36 36 36 38 38 38 38 34 34 34 34 34 34 34 34 36 36 36 36 34 34 34 34 38 38 38 38 38 38 38 38 40 40 40 40 45 45 45 45 48 48 48 48 60 60 60 60 59 59 59 59 52 52 52 52 48 48 48 48 45 45 45 45 46 46 46 46 48 48 48 48 50 50 50 50 49 49 49 49 49 49 49 49 54 54 54 54 57 57 57 57 58 58 58 58 51 51 51 51 56 56 56 56 55 55 55 55 51 51 51 51 47 47 47 47 45 45 45 45 50 50 50 50 48 48 48 48 48 48 48 48 46 46 46 46 45 45 45 45 44 44 44 44 43 43 43 43 43 43 43 43 40 40 40 40 38 38 38 38 36 36 36 36 30 30 30 30 27 27 27 27 33 33 33 33 33 33 33 33 32 32 32 32 38 38 38 38 38 38 38 38 38 38 38 38 27 27 27 27 26 26 26 26 21 21 21 21 22 22 22 22 20 20 20 20 20 20 20 20 18 18 18 18 18 18 18 18 18 18 18 18 18 18 18 18 19 19 19 19 16 16 16 16 16 16 16 16 16 16 16 16 16 16 16 16 16 16 16 16 16 16 16 16 16 16 16 16 16 16 16 16 16 16 16 16 17 17 17 17 17 17 17 17 16 16 16 16 16 16 16 16 16 16 16 16 16 16 16 16 16 16 16 16 16 16 16 16 16 16 16 16 16 16 16 16 16 16 16 16 16 16 16 16 16 16 16 16 16 16 16 16 18 18 18 18 20 20 20 20 20 20 20 20 20 20 20 20 22 22 22 22 21 21 21 21 21 21 21 21 20 20 20 20 22 22 22 22 20 20 20 20 18 18 18 18 16 16 16 16 16 16 16 16 17 17 17 17 15 15 15 15 12 12 12 12 15 15 15 15 19 19 19 19 20 20 20 20 22 22 22 22 17 17 17 17 14 14 14 14 15 15 15 15 15 15 15 15 15 15 15 15 14 14 14 14 15 15 15 15 15 15 15 15 14 14 14 14 14 14 14 14 17 17 17 17 17 17 17 17 17 17 17 17 17 17 17 17 14 14 14 14 14 14 14 14 14 14 14 14 14 14 14 14 14 14 14 14 15 15 15 15 15 15 15 15 15 15 15 15 15 15 15 15 15 15 15 15 14 14 14 14 14 14 14 14 14 14 14 14 14 14 14 14 12 12 12 12 17 17 17 17 16 16 16 16 16 16 16 16 17 17 17 17 18 18 18 18 20 20 20 20 18 18 18 18 20 20 20 20 21 21 21 21 21 21 21 21 21 21 21 21 22 22 22 22 23 23 23 23 21 21 21 21 25 25 25 25 30 30 30 30 36 36 36 36 25 25 25 25 38 38 38 38 40 40 40 40 44 44 44 44 48 48 48 48 49 49 49 49 50 50 50 50 43 43 43 43 38 38 38 38 36 36 36 36 31 31 31 31 20 20 20 20 12 12 12 12 13 13 13 13 10 10 10 10 10 10 10 10 10 10 10 10 9 9 9 9 10 10 10 10 12 12 12 12 12 12 12 12
32 32 32 32 30 30 30 30 33 33 33 33 38 38 38 38 37 37 37 37 39 39 39 39 42 42 42 42 50 50 50 50 48 48 48 48 54 54 54 54 49 49 49 49 43 43 43 43 32 32 32 32 31 31 31 31 31 31 31 31 27 27 27 27 25 25 25 25 23 23 23 23 24 24 24 24 21 21 21 21 21 21 21 21 21 21 21 21 21 21 21 21 25 25 25 25 27 27 27 27 28 28 28 28 28 28 28 28 31 31 31 31 33 33 33 33 32 32 32 32 36 36 36 36 38 38 38 38 38 38 38 38 32 32 32 32 31 31 31 31 29 29 29 29 26 26 26 26 22 22 22 22 18 18 18 18 19 19 19 19 16 16 16 16 16 16 16 16 16 16 16 16 16 16 16 16 16 16 16 16 17 17 17 17 17 17 17 17 17 17 17 17 17 17 17 17 17 17 17 17 16 16 16 16 16 16 16 16 16 16 16 16 16 16 16 16 18 18 18 18 20 20 20 20 22 22 22 22 22 22 22 22 21 21 21 21 21 21 21 21 26 26 26 26 24 24 24 24 24 24 24 24 21 21 21 21 21 21 21 21 26 26 26 26 23 23 23 23 24 24 24 24 25 25 25 25 28 28 28 28 29 29 29 29 27 27 27 27 31 31 31 31 31 31 31 31 31 31 31 31 30 30 30 30 30 30 30 30 30 30 30 30 36 36 36 36 38 38 38 38 34 34 34 34 34 34 34 34 36 36 36 36 34 34 34 34 38 38 38 38 38 38 38 38 40 40 40 40 45 45 45 45 48 48 48 48 60 60 60 60 59 59 59 59 52 52 52 52 48 48 48 48 45 45 45 45 46 46 46 46 48 48 48 48 50 50 50 50 49 49 49 49 49 49 49 49 54 54 54 54 57 57 57 57 58 58 58 58 51 51 51 51 56 56 56 56 55 55 55 55 51 51 51 51 47 47 47 47 45 45 45 45 50 50 50 50 48 48 48 48 48 48 48 48 46 46 46 46 45 45 45 45 44 44 44 44 43 43 43 43 43 43 43 43 40 40 40 40 38 38 38 38 36 36 36 36 30 30 30 30 27 27 27 27 33 33 33 33 33 33 33 33 32 32 32 32 38 38 38 38 38 38 38 38 38 38 38 38 27 27 27 27 26 26 26 26 21 21 21 21 22 22 22 22 20 20 20 20 20 20 20 20 18 18 18 18 18 18 18 18 18 18 18 18 18 18 18 18 19 19 19 19 16 16 16 16 16 16 16 16 16 16 16 16 16 16 16 16 16 16 16 16 16 16 16 16 16 16 16 16 16 16 16 16 16 16 16 16 17 17 17 17 17 17 17 17 16 16 16 16 16 16 16 16 16 16 16 16 16 16 16 16 16 16 16 16 16 16 16 16 16 16 16 16 16 16 16 16 16 16 16 16 16 16 16 16 16 16 16 16 16 16 16 16 18 18 18 18 20 20 20 20 20 20 20 20 20 20 20 20 22 22 22 22 21 21 21 21 21 21 21 21 20 20 20 20 22 22 22 22 20 20 20 20 18 18 18 18 16 16 16 16 16 16 16 16 17 17 17 17 15 15 15 15 12 12 12 12 15 15 15 15 19 19 19 19 20 20 20 20 22 22 22 22 17 17 17 17 14 14 14 14 15 15 15 15 15 15 15 15 15 15 15 15 14 14 14 14 15 15 15 15 15 15 15 15 14 14 14 14 14 14 14 14 17 17 17 17 17 17 17 17 17 17 17 17 17 17 17 17 14 14 14 14 14 14 14 14 14 14 14 14 14 14 14 14 14 14 14 14 15 15 15 15 15 15 15 15 15 15 15 15 15 15 15 15 15 15 15 15 14 14 14 14 14 14 14 14 14 14 14 14 14 14 14 14 12 12 12 12 17 17 17 17 16 16 16 16 16 16 16 16 17 17 17 17 18 18 18 18 20 20 20 20 18 18 18 18 20 20 20 20 21 21 21 21 21 21 21 21 21 21 21 21 22 22 22 22 23 23 23 23 21 21 21 21 25 25 25 25 30 30 30 30 36 36 36 36 25 25 25 25 38 38 38 38 40 40 40 40 44 44 44 44 48 48 48 48 49 49 49 49 50 50 50 50 43 43 43 43 38 38 38 38 36 36 36 36 31 31 31 31 20 20 20 20 12 12 12 12 13 13 13 13 10 10 10 10 10 10 10 10 10 10 10 10 9 9 9 9 10 10 10 10 12 12 12 12 12 12 12 12
32 32 32 32 30 30 30 30 33 33 33 33 38 38 38 38 37 37 37 37 39 39 39 39 42 42 42 42 50 50 50 50 48 48 48 48 54 54 54 54 49 49 49 49 43 43 43 43 32 32 32 32 31 31 31 31 31 31 31 31 27 27 27 27 25 25 25 25 23 23 23 23 24 24 24 24 21 21 21 21 21 21 21 21 21 21 21 21 21 21 21 21 25 25 25 25 27 27 27 27 28 28 28 28 28 28 28 28 31 31 31 31 33 33 33 33 32 32 32 32 36 36 36 36 38 38 38 38 38 38 38 38 32 32 32 32 31 31 31 31 29 29 29 29 26 26 26 26 22 22 22 22 18 18 18 18 19 19 19 19 16 16 16 16 16 16 16 16 16 16 16 16 16 16 16 16 16 16 16 16 17 17 17 17 17 17 17 17 17 17 17 17 17 17 17 17 17 17 17 17 16 16 16 16 16 16 16 16 16 16 16 16 16 16 16 16 18 18 18 18 20 20 20 20 22 22 22 22 22 22 22 22 21 21 21 21 21 21 21 21 26 26 26 26 24 24 24 24 24 24 24 24 21 21 21 21 21 21 21 21 26 26 26 26 23 23 23 23 24 24 24 24 25 25 25 25 28 28 28 28 29 29 29 29 27 27 27 27 31 31 31 31 31 31 31 31 31 31 31 31 30 30 30 30 30 30 30 30 30 30 30 30 36 36 36 36 38 38 38 38 34 34 34 34 34 34 34 34 36 36 36 36 34 34 34 34 38 38 38 38 38 38 38 38 40 40 40 40 45 45 45 45 48 48 48 48 60 60 60 60 59 59 59 59 52 52 52 52 48 48 48 48 45 45 45 45 46 46 46 46 48 48 48 48 50 50 50 50 49 49 49 49 49 49 49 49 54 54 54 54 57 57 57 57 58 58 58 58 51 51 51 51 56 56 56 56 55 55 55 55 51 51 51 51 47 47 47 47 45 45 45 45 50 50 50 50 48 48 48 48 48 48 48 48 46 46 46 46 45 45 45 45 44 44 44 44 43 43 43 43 43 43 43 43 40 40 40 40 38 38 38 38 36 36 36 36 30 30 30 30 27 27 27 27 33 33 33 33 33 33 33 33 32 32 32 32 38 38 38 38 38 38 38 38 38 38 38 38 27 27 27 27 26 26 26 26 21 21 21 21 22 22 22 22 20 20 20 20 20 20 20 20 18 18 18 18 18 18 18 18 18 18 18 18 18 18 18 18 19 19 19 19 16 16 16 16 16 16 16 16 16 16 16 16 16 16 16 16 16 16 16 16 16 16 16 16 16 16 16 16 16 16 16 16 16 16 16 16 17 17 17 17 17 17 17 17 16 16 16 16 16 16 16 16 16 16 16 16 16 16 16 16 16 16 16 16 16 16 16 16 16 16 16 16 16 16 16 16 16 16 16 16 16 16 16 16 16 16 16 16 16 16 16 16 18 18 18 18 20 20 20 20 20 20 20 20 20 20 20 20 22 22 22 22 21 21 21 21 21 21 21 21 20 20 20 20 22 22 22 22 20 20 20 20 18 18 18 18 16 16 16 16 16 16 16 16 17 17 17 17 15 15 15 15 12 12 12 12 15 15 15 15 19 19 19 19 20 20 20 20 22 22 22 22 17 17 17 17 14 14 14 14 15 15 15 15 15 15 15 15 15 15 15 15 14 14 14 14 15 15 15 15 15 15 15 15 14 14 14 14 14 14 14 14 17 17 17 17 17 17 17 17 17 17 17 17 17 17 17 17 14 14 14 14 14 14 14 14 14 14 14 14 14 14 14 14 14 14 14 14 15 15 15 15 15 15 15 15 15 15 15 15 15 15 15 15 15 15 15 15 14 14 14 14 14 14 14 14 14 14 14 14 14 14 14 14 12 12 12 12 17 17 17 17 16 16 16 16 16 16 16 16 17 17 17 17 18 18 18 18 20 20 20 20 18 18 18 18 20 20 20 20 21 21 21 21 21 21 21 21 21 21 21 21 22 22 22 22 23 23 23 23 21 21 21 21 25 25 25 25 30 30 30 30 36 36 36 36 25 25 25 25 38 38 38 38 40 40 40 40 44 44 44 44 48 48 48 48 49 49 49 49 50 50 50 50 43 43 43 43 38 38 38 38 36 36 36 36 31 31 31 31 20 20 20 20 12 12 12 12 13 13 13 13 10 10 10 10 10 10 10 10 10 10 10 10 9 9 9 9 10 10 10 10 12 12 12 12 12 12 12 12
32 32 32 32 30 30 30 30 33 33 33 33 38 38 38 38 37 37 37 37 39 39 39 39 42 42 42 42 50 50 50 50 48 48 48 48 54 54 54 54 49 49 49 49 43 43 43 43 32 32 32 32 31 31 31 31 31 31 31 31 27 27 27 27 25 25 25 25 23 23 23 23 24 24 24 24 21 21 21 21 21 21 21 21 21 21 21 21 21 21 21 21 25 25 25 25 27 27 27 27 28 28 28 28 28 28 28 28 31 31 31 31 33 33 33 33 32 32 32 32 36 36 36 36 38 38 38 38 38 38 38 38 32 32 32 32 31 31 31 31 29 29 29 29 26 26 26 26 22 22 22 22 18 18 18 18 19 19 19 19 16 16 16 16 16 16 16 16 16 16 16 16 16 16 16 16 16 16 16 16 17 17 17 17 17 17 17 17 17 17 17 17 17 17 17 17 17 17 17 17 16 16 16 16 16 16 16 16 16 16 16 16 16 16 16 16 18 18 18 18 20 20 20 20 22 22 22 22 22 22 22 22 21 21 21 21 21 21 21 21 26 26 26 26 24 24 24 24 24 24 24 24 21 21 21 21 21 21 21 21 26 26 26 26 23 23 23 23 24 24 24 24 25 25 25 25 28 28 28 28 29 29 29 29 27 27 27 27 31 31 31 31 31 31 31 31 31 31 31 31 30 30 30 30 30 30 30 30 30 30 30 30 36 36 36 36 38 38 38 38 34 34 34 34 34 34 34 34 36 36 36 36 34 34 34 34 38 38 38 38 38 38 38 38 40 40 40 40 45 45 45 45 48 48 48 48 60 60 60 60 59 59 59 59 52 52 52 52 48 48 48 48 45 45 45 45 46 46 46 46 48 48 48 48 50 50 50 50 49 49 49 49 49 49 49 49 54 54 54 54 57 57 57 57 58 58 58 58 51 51 51 51 56 56 56 56 55 55 55 55 51 51 51 51 47 47 47 47 45 45 45 45 50 50 50 50 48 48 48 48 48 48 48 48 46 46 46 46 45 45 45 45 44 44 44 44 43 43 43 43 43 43 43 43 40 40 40 40 38 38 38 38 36 36 36 36 30 30 30 30 27 27 27 27 33 33 33 33 33 33 33 33 32 32 32 32 38 38 38 38 38 38 38 38 38 38 38 38 27 27 27 27 26 26 26 26 21 21 21 21 22 22 22 22 20 20 20 20 20 20 20 20 18 18 18 18 18 18 18 18 18 18 18 18 18 18 18 18 19 19 19 19 16 16 16 16 16 16 16 16 16 16 16 16 16 16 16 16 16 16 16 16 16 16 16 16 16 16 16 16 16 16 16 16 16 16 16 16 17 17 17 17 17 17 17 17 16 16 16 16 16 16 16 16 16 16 16 16 16 16 16 16 16 16 16 16 16 16 16 16 16 16 16 16 16 16 16 16 16 16 16 16 16 16 16 16 16 16 16 16 16 16 16 16 18 18 18 18 20 20 20 20 20 20 20 20 20 20 20 20 22 22 22 22 21 21 21 21 21 21 21 21 20 20 20 20 22 22 22 22 20 20 20 20 18 18 18 18 16 16 16 16 16 16 16 16 17 17 17 17 15 15 15 15 12 12 12 12 15 15 15 15 19 19 19 19 20 20 20 20 22 22 22 22 17 17 17 17 14 14 14 14 15 15 15 15 15 15 15 15 15 15 15 15 14 14 14 14 15 15 15 15 15 15 15 15 14 14 14 14 14 14 14 14 17 17 17 17 17 17 17 17 17 17 17 17 17 17 17 17 14 14 14 14 14 14 14 14 14 14 14 14 14 14 14 14 14 14 14 14 15 15 15 15 15 15 15 15 15 15 15 15 15 15 15 15 15 15 15 15 14 14 14 14 14 14 14 14 14 14 14 14 14 14 14 14 12 12 12 12 17 17 17 17 16 16 16 16 16 16 16 16 17 17 17 17 18 18 18 18 20 20 20 20 18 18 18 18 20 20 20 20 21 21 21 21 21 21 21 21 21 21 21 21 22 22 22 22 23 23 23 23 21 21 21 21 25 25 25 25 30 30 30 30 36 36 36 36 25 25 25 25 38 38 38 38 40 40 40 40 44 44 44 44 48 48 48 48 49 49 49 49 50 50 50 50 43 43 43 43 38 38 38 38 36 36 36 36 31 31 31 31 20 20 20 20 12 12 12 12 13 13 13 13 10 10 10 10 10 10 10 10 10 10 10 10 9 9 9 9 10 10 10 10 12 12 12 12 12 12 12 12
30 30 30 30 33 33 33 33 32 32 32 32 38 38 38 38 45 45 45 45 48 48 48 48 43 43 43 43 47 47 47 47 49 49 49 49 48 48 48 48 48 48 48 48 48 48 48 48 44 44 44 44 32 32 32 32 27 27 27 27 27 27 27 27 25 25 25 25 21 21 21 21 21 21 21 21 21 21 21 21 21 21 21 21 21 21 21 21 21 21 21 21 21 21 21 21 21 21 21 21 21 21 21 21 25 25 25 25 31 31 31 31 30 30 30 30 33 33 33 33 33 33 33 33 32 32 32 32 32 32 32 32 30 30 30 30 27 27 27 27 29 29 29 29 28 28 28 28 24 24 24 24 21 21 21 21 22 22 22 22 16 16 16 16 16 16 16 16 16 16 16 16 16 16 16 16 16 16 16 16 16 16 16 16 16 16 16 16 16 16 16 16 16 16 16 16 16 16 16 16 16 16 16 16 16 16 16 16 16 16 16 16 16 16 16 16 19 19 19 19 18 18 18 18 18 18 18 18 18 18 18 18 20 20 20 20 20 20 20 20 22 22 22 22 21 21 21 21 21 21 21 21 21 21 21 21 26 26 26 26 24 24 24 24 24 24 24 24 24 24 24 24 24 24 24 24 23 23 23 23 25 25 25 25 28 28 28 28 27 27 27 27 31 31 31 31 31 31 31 31 31 31 31 31 31 31 31 31 31 31 31 31 30 30 30 30 33 33 33 33 32 32 32 32 32 32 32 32 36 36 36 36 38 38 38 38 38 38 38 38 39 39 39 39 40 40 40 40 42 42 42 42 45 45 45 45 49 49 49 49 55 55 55 55 57 57 57 57 50 50 50 50 45 45 45 45 44 44 44 44 45 45 45 45 48 48 48 48 49 49 49 49 55 55 55 55 57 57 57 57 58 58 58 58 61 61 61 61 58 58 58 58 51 51 51 51 52 52 52 52 55 55 55 55 51 51 51 51 50 50 50 50 50 50 50 50 50 50 50 50 47 47 47 47 49 49 49 49 51 51 51 51 50 50 50 50 46 46 46 46 43 43 43 43 40 40 40 40 38 38 38 38 32 32 32 32 33 33 33 33 27 27 27 27 30 30 30 30 33 33 33 33 36 36 36 36 38 38 38 38 38 38 38 38 36 36 36 36 31 31 31 31 27 27 27 27 24 24 24 24 20 20 20 20 20 20 20 20 20 20 20 20 20 20 20 20 20 20 20 20 20 20 20 20 20 20 20 20 20 20 20 20 20 20 20 20 18 18 18 18 19 19 19 19 19 19 19 19 19 19 19 19 19 19 19 19 19 19 19 19 16 16 16 16 16 16 16 16 16 16 16 16 16 16 16 16 16 16 16 16 16 16 16 16 16 16 16 16 16 16 16 16 16 16 16 16 16 16 16 16 16 16 16 16 16 16 16 16 16 16 16 16 16 16 16 16 16 16 16 16 16 16 16 16 16 16 16 16 18 18 18 18 18 18 18 18 18 18 18 18 20 20 20 20 20 20 20 20 20 20 20 20 20 20 20 20 22 22 22 22 21 21 21 21 20 20 20 20 16 16 16 16 17 17 17 17 14 14 14 14 15 15 15 15 14 14 14 14 14 14 14 14 16 16 16 16 18 18 18 18 16 16 16 16 14 14 14 14 15 15 15 15 15 15 15 15 15 15 15 15 15 15 15 15 14 14 14 14 15 15 15 15 14 14 14 14 14 14 14 14 14 14 14 14 17 17 17 17 14 14 14 14 15 15 15 15 17 17 17 17 17 17 17 17 14 14 14 14 14 14 14 14 17 17 17 17 17 17 17 17 14 14 14 14 15 15 15 15 15 15 15 15 15 15 15 15 15 15 15 15 12 12 12 12 12 12 12 12 14 14 14 14 12 12 12 12 15 15 15 15 17 17 17 17 16 16 16 16 16 16 16 16 16 16 16 16 20 20 20 20 20 20 20 20 19 19 19 19 20 20 20 20 21 21 21 21 21 21 21 21 26 26 26 26 21 21 21 21 25 25 25 25 28 28 28 28 26 26 26 26 30 30 30 30 34 34 34 34 33 33 33 33 29 29 29 29 40 40 40 40 45 45 45 45 49 49 49 49 51 51 51 51 46 46 46 46 46 46 46 46 39 39 39 39 32 32 32 32 29 29 29 29 21 21 21 21 15 15 15 15 10 10 10 10 9 9 9 9 10 10 10 10 10 10 10 10 10 10 10 10 11 11 11 11 12 12 12 12 12 12 12 12
30 30 30 30 33 33 33 33 32 32 32 32 38 38 38 38 45 45 45 45 48 48 48 48 43 43 43 43 47 47 47 47 49 49 49 49 48 48 48 48 48 48 48 48 48 48 48 48 44 44 44 44 32 32 32 32 27 27 27 27 27 27 27 27 25 25 25 25 21 21 21 21 21 21 21 21 21 21 21 21 21 21 21 21 21 21 21 21 21 21 21 21 21 21 21 21 21 21 21 21 21 21 21 21 25 25 25 25 31 31 31 31 30 30 30 30 33 33 33 33 33 33 33 33 32 32 32 32 32 32 32 32 30 30 30 30 27 27 27 27 29 29 29 29 28 28 28 28 24 24 24 24 21 21 21 21 22 22 22 22 16 16 16 16 16 16 16 16 16 16 16 16 16 16 16 16 16 16 16 16 16 16 16 16 16 16 16 16 16 16 16 16 16 16 16 16 16 16 16 16 16 16 16 16 16 16 16 16 16 16 16 16 16 16 16 16 19 19 19 19 18 18 18 18 18 18 18 18 18 18 18 18 20 20 20 20 20 20 20 20 22 22 22 22 21 21 21 21 21 21 21 21 21 21 21 21 26 26 26 26 24 24 24 24 24 24 24 24 24 24 24 24 24 24 24 24 23 23 23 23 25 25 25 25 28 28 28 28 27 27 27 27 31 31 31 31 31 31 31 31 31 31 31 31 31 31 31 31 31 31 31 31 30 30 30 30 33 33 33 33 32 32 32 32 32 32 32 32 36 36 36 36 38 38 38 38 38 38 38 38 39 39 39 39 40 40 40 40 42 42 42 42 45 45 45 45 49 49 49 49 55 55 55 55 57 57 57 57 50 50 50 50 45 45 45 45 44 44 44 44 45 45 45 45 48 48 48 48 49 49 49 49 55 55 55 55 57 57 57 57 58 58 58 58 61 61 61 61 58 58 58 58 51 51 51 51 52 52 52 52 55 55 55 55 51 51 51 51 50 50 50 50 50 50 50 50 50 50 50 50 47 47 47 47 49 49 49 49 51 51 51 51 50 50 50 50 46 46 46 46 43 43 43 43 40 40 40 40 38 38 38 38 32 32 32 32 33 33 33 33 27 27 27 27 30 30 30 30 33 33 33 33 36 36 36 36 38 38 38 38 38 38 38 38 36 36 36 36 31 31 31 31 27 27 27 27 24 24 24 24 20 20 20 20 20 20 20 20 20 20 20 20 20 20 20 20 20 20 20 20 20 20 20 20 20 20 20 20 20 20 20 20 20 20 20 20 18 18 18 18 19 19 19 19 19 19 19 19 19 19 19 19 19 19 19 19 19 19 19 19 16 16 16 16 16 16 16 16 16 16 16 16 16 16 16 16 16 16 16 16 16 16 16 16 16 16 16 16 16 16 16 16 16 16 16 16 16 16 16 16 16 16 16 16 16 16 16 16 16 16 16 16 16 16 16 16 16 16 16 16 16 16 16 16 16 16 16 16 18 18 18 18 18 18 18 18 18 18 18 18 20 20 20 20 20 20 20 20 20 20 20 20 20 20 20 20 22 22 22 22 21 21 21 21 20 20 20 20 16 16 16 16 17 17 17 17 14 14 14 14 15 15 15 15 14 14 14 14 14 14 14 14 16 16 16 16 18 18 18 18 16 16 16 16 14 14 14 14 15 15 15 15 15 15 15 15 15 15 15 15 15 15 15 15 14 14 14 14 15 15 15 15 14 14 14 14 14 14 14 14 14 14 14 14 17 17 17 17 14 14 14 14 15 15 15 15 17 17 17 17 17 17 17 17 14 14 14 14 14 14 14 14 17 17 17 17 17 17 17 17 14 14 14 14 15 15 15 15 15 15 15 15 15 15 15 15 15 15 15 15 12 12 12 12 12 12 12 12 14 14 14 14 12 12 12 12 15 15 15 15 17 17 17 17 16 16 16 16 16 16 16 16 16 16 16 16 20 20 20 20 20 20 20 20 19 19 19 19 20 20 20 20 21 21 21 21 21 21 21 21 26 26 26 26 21 21 21 21 25 25 25 25 28 28 28 28 26 26 26 26 30 30 30 30 34 34 34 34 33 33 33 33 29 29 29 29 40 40 40 40 45 45 45 45 49 49 49 49 51 51 51 51 46 46 46 46 46 46 46 46 39 39 39 39 32 32 32 32 29 29 29 29 21 21 21 21 15 15 15 15 10 10 10 10 9 9 9 9 10 10 10 10 10 10 10 10 10 10 10 10 11 11 11 11 12 12 12 12 12 12 12 12
30 30 30 30 33 33 33 33 32 32 32 32 38 38 38 38 45 45 45 45 48 48 48 48 43 43 43 43 47 47 47 47 49 49 49 49 48 48 48 48 48 48 48 48 48 48 48 48 44 44 44 44 32 32 32 32 27 27 27 27 27 27 27 27 25 25 25 25 21 21 21 21 21 21 21 21 21 21 21 21 21 21 21 21 21 21 21 21 21 21 21 21 21 21 21 21 21 21 21 21 21 21 21 21 25 25 25 25 31 31 31 31 30 30 30 30 33 33 33 33 33 33 33 33 32 32 32 32 32 32 32 32 30 30 30 30 27 27 27 27 29 29 29 29 28 28 28 28 24 24 24 24 21 21 21 21 22 22 22 22 16 16 16 16 16 16 16 16 16 16 16 16 16 16 16 16 16 16 16 16 16 16 16 16 16 16 16 16 16 16 16 16 16 16 16 16 16 16 16 16 16 16 16 16 16 16 16 16 16 16 16 16 16 16 16 16 19 19 19 19 18 18 18 18 18 18 18 18 18 18 18 18 20 20 20 20 20 20 20 20 22 22 22 22 21 21 21 21 21 21 21 21 21 21 21 21 26 26 26 26 24 24 24 24 24 24 24 24 24 24 24 24 24 24 24 24 23 23 23 23 25 25 25 25 28 28 28 28 27 27 27 27 31 31 31 31 31 31 31 31 31 31 31 31 31 31 31 31 31 31 31 31 30 30 30 30 33 33 33 33 32 32 32 32 32 32 32 32 36 36 36 36 38 38 38 38 38 38 38 38 39 39 39 39 40 40 40 40 42 42 42 42 45 45 45 45 49 49 49 49 55 55 55 55 57 57 57 57 50 50 50 50 45 45 45 45 44 44 44 44 45 45 45 45 48 48 48 48 49 49 49 49 55 55 55 55 57 57 57 57 58 58 58 58 61 61 61 61 58 58 58 58 51 51 51 51 52 52 52 52 55 55 55 55 51 51 51 51 50 50 50 50 50 50 50 50 50 50 50 50 47 47 47 47 49 49 49 49 51 51 51 51 50 50 50 50 46 46 46 46 43 43 43 43 40 40 40 40 38 38 38 38 32 32 32 32 33 33 33 33 27 27 27 27 30 30 30 30 33 33 33 33 36 36 36 36 38 38 38 38 38 38 38 38 36 36 36 36 31 31 31 31 27 27 27 27 24 24 24 24 20 20 20 20 20 20 20 20 20 20 20 20 20 20 20 20 20 20 20 20 20 20 20 20 20 20 20 20 20 20 20 20 20 20 20 20 18 18 18 18 19 19 19 19 19 19 19 19 19 19 19 19 19 19 19 19 19 19 19 19 16 16 16 16 16 16 16 16 16 16 16 16 16 16 16 16 16 16 16 16 16 16 16 16 16 16 16 16 16 16 16 16 16 16 16 16 16 16 16 16 16 16 16 16 16 16 16 16 16 16 16 16 16 16 16 16 16 16 16 16 16 16 16 16 16 16 16 16 18 18 18 18 18 18 18 18 18 18 18 18 20 20 20 20 20 20 20 20 20 20 20 20 20 20 20 20 22 22 22 22 21 21 21 21 20 20 20 20 16 16 16 16 17 17 17 17 14 14 14 14 15 15 15 15 14 14 14 14 14 14 14 14 16 16 16 16 18 18 18 18 16 16 16 16 14 14 14 14 15 15 15 15 15 15 15 15 15 15 15 15 15 15 15 15 14 14 14 14 15 15 15 15 14 14 14 14 14 14 14 14 14 14 14 14 17 17 17 17 14 14 14 14 15 15 15 15 17 17 17 17 17 17 17 17 14 14 14 14 14 14 14 14 17 17 17 17 17 17 17 17 14 14 14 14 15 15 15 15 15 15 15 15 15 15 15 15 15 15 15 15 12 12 12 12 12 12 12 12 14 14 14 14 12 12 12 12 15 15 15 15 17 17 17 17 16 16 16 16 16 16 16 16 16 16 16 16 20 20 20 20 20 20 20 20 19 19 19 19 20 20 20 20 21 21 21 21 21 21 21 21 26 26 26 26 21 21 21 21 25 25 25 25 28 28 28 28 26 26 26 26 30 30 30 30 34 34 34 34 33 33 33 33 29 29 29 29 40 40 40 40 45 45 45 45 49 49 49 49 51 51 51 51 46 46 46 46 46 46 46 46 39 39 39 39 32 32 32 32 29 29 29 29 21 21 21 21 15 15 15 15 10 10 10 10 9 9 9 9 10 10 10 10 10 10 10 10 10 10 10 10 11 11 11 11 12 12 12 12 12 12 12 12
30 30 30 30 33 33 33 33 32 32 32 32 38 38 38 38 45 45 45 45 48 48 48 48 43 43 43 43 47 47 47 47 49 49 49 49 48 48 48 48 48 48 48 48 48 48 48 48 44 44 44 44 32 32 32 32 27 27 27 27 27 27 27 27 25 25 25 25 21 21 21 21 21 21 21 21 21 21 21 21 21 21 21 21 21 21 21 21 21 21 21 21 21 21 21 21 21 21 21 21 21 21 21 21 25 25 25 25 31 31 31 31 30 30 30 30 33 33 33 33 33 33 33 33 32 32 32 32 32 32 32 32 30 30 30 30 27 27 27 27 29 29 29 29 28 28 28 28 24 24 24 24 21 21 21 21 22 22 22 22 16 16 16 16 16 16 16 16 16 16 16 16 16 16 16 16 16 16 16 16 16 16 16 16 16 16 16 16 16 16 16 16 16 16 16 16 16 16 16 16 16 16 16 16 16 16 16 16 16 16 16 16 16 16 16 16 19 19 19 19 18 18 18 18 18 18 18 18 18 18 18 18 20 20 20 20 20 20 20 20 22 22 22 22 21 21 21 21 21 21 21 21 21 21 21 21 26 26 26 26 24 24 24 24 24 24 24 24 24 24 24 24 24 24 24 24 23 23 23 23 25 25 25 25 28 28 28 28 27 27 27 27 31 31 31 31 31 31 31 31 31 31 31 31 31 31 31 31 31 31 31 31 30 30 30 30 33 33 33 33 32 32 32 32 32 32 32 32 36 36 36 36 38 38 38 38 38 38 38 38 39 39 39 39 40 40 40 40 42 42 42 42 45 45 45 45 49 49 49 49 55 55 55 55 57 57 57 57 50 50 50 50 45 45 45 45 44 44 44 44 45 45 45 45 48 48 48 48 49 49 49 49 55 55 55 55 57 57 57 57 58 58 58 58 61 61 61 61 58 58 58 58 51 51 51 51 52 52 52 52 55 55 55 55 51 51 51 51 50 50 50 50 50 50 50 50 50 50 50 50 47 47 47 47 49 49 49 49 51 51 51 51 50 50 50 50 46 46 46 46 43 43 43 43 40 40 40 40 38 38 38 38 32 32 32 32 33 33 33 33 27 27 27 27 30 30 30 30 33 33 33 33 36 36 36 36 38 38 38 38 38 38 38 38 36 36 36 36 31 31 31 31 27 27 27 27 24 24 24 24 20 20 20 20 20 20 20 20 20 20 20 20 20 20 20 20 20 20 20 20 20 20 20 20 20 20 20 20 20 20 20 20 20 20 20 20 18 18 18 18 19 19 19 19 19 19 19 19 19 19 19 19 19 19 19 19 19 19 19 19 16 16 16 16 16 16 16 16 16 16 16 16 16 16 16 16 16 16 16 16 16 16 16 16 16 16 16 16 16 16 16 16 16 16 16 16 16 16 16 16 16 16 16 16 16 16 16 16 16 16 16 16 16 16 16 16 16 16 16 16 16 16 16 16 16 16 16 16 18 18 18 18 18 18 18 18 18 18 18 18 20 20 20 20 20 20 20 20 20 20 20 20 20 20 20 20 22 22 22 22 21 21 21 21 20 20 20 20 16 16 16 16 17 17 17 17 14 14 14 14 15 15 15 15 14 14 14 14 14 14 14 14 16 16 16 16 18 18 18 18 16 16 16 16 14 14 14 14 15 15 15 15 15 15 15 15 15 15 15 15 15 15 15 15 14 14 14 14 15 15 15 15 14 14 14 14 14 14 14 14 14 14 14 14 17 17 17 17 14 14 14 14 15 15 15 15 17 17 17 17 17 17 17 17 14 14 14 14 14 14 14 14 17 17 17 17 17 17 17 17 14 14 14 14 15 15 15 15 15 15 15 15 15 15 15 15 15 15 15 15 12 12 12 12 12 12 12 12 14 14 14 14 12 12 12 12 15 15 15 15 17 17 17 17 16 16 16 16 16 16 16 16 16 16 16 16 20 20 20 20 20 20 20 20 19 19 19 19 20 20 20 20 21 21 21 21 21 21 21 21 26 26 26 26 21 21 21 21 25 25 25 25 28 28 28 28 26 26 26 26 30 30 30 30 34 34 34 34 33 33 33 33 29 29 29 29 40 40 40 40 45 45 45 45 49 49 49 49 51 51 51 51 46 46 46 46 46 46 46 46 39 39 39 39 32 32 32 32 29 29 29 29 21 21 21 21 15 15 15 15 10 10 10 10 9 9 9 9 10 10 10 10 10 10 10 10 10 10 10 10 11 11 11 11 12 12 12 12 12 12 12 12
30 30 30 30 32 32 32 32 34 34 34 34 37 37 37 37 46 46 46 46 60 60 60 60 50 50 50 50 49 49 49 49 62 62 62 62 63 63 63 63 58 58 58 58 48 48 48 48 48 48 48 48 43 43 43 43 30 30 30 30 31 31 31 31 31 31 31 31 24 24 24 24 21 21 21 21 21 21 21 21 21 21 21 21 21 21 21 21 21 21 21 21 21 21 21 21 21 21 21 21 26 26 26 26 24 24 24 24 27 27 27 27 31 31 31 31 30 30 30 30 30 30 30 30 30 30 30 30 30 30 30 30 31 31 31 31 29 29 29 29 28 28 28 28 27 27 27 27 27 27 27 27 26 26 26 26 21 21 21 21 20 20 20 20 16 16 16 16 16 16 16 16 16 16 16 16 16 16 16 16 16 16 16 16 16 16 16 16 16 16 16 16 16 16 16 16 16 16 16 16 16 16 16 16 16 16 16 16 16 16 16 16 16 16 16 16 16 16 16 16 16 16 16 16 16 16 16 16 16 16 16 16 16 16 16 16 19 19 19 19 18 18 18 18 20 20 20 20 20 20 20 20 20 20 20 20 21 21 21 21 21 21 21 21 21 21 21 21 21 21 21 21 24 24 24 24 23 23 23 23 23 23 23 23 25 25 25 25 29 29 29 29 27 27 27 27 27 27 27 27 27 27 27 27 31 31 31 31 31 31 31 31 30 30 30 30 30 30 30 30 32 32 32 32 32 32 32 32 36 36 36 36 38 38 38 38 38 38 38 38 38 38 38 38 40 40 40 40 41 41 41 41 43 43 43 43 45 45 45 45 45 45 45 45 48 48 48 48 49 49 49 49 45 45 45 45 43 43 43 43 46 46 46 46 48 48 48 48 49 49 49 49 57 57 57 57 64 64 64 64 61 61 61 61 60 60 60 60 52 52 52 52 50 50 50 50 48 48 48 48 48 48 48 48 48 48 48 48 48 48 48 48 46 46 46 46 45 45 45 45 45 45 45 45 45 45 45 45 48 48 48 48 49 49 49 49 51 51 51 51 45 45 45 45 40 40 40 40 37 37 37 37 34 34 34 34 36 36 36 36 30 30 30 30 30 30 30 30 33 33 33 33 36 36 36 36 38 38 38 38 38 38 38 38 34 34 34 34 32 32 32 32 33 33 33 33 24 24 24 24 21 21 21 21 21 21 21 21 20 20 20 20 20 20 20 20 20 20 20 20 22 22 22 22 26 26 26 26 26 26 26 26 29 29 29 29 21 21 21 21 20 20 20 20 18 18 18 18 18 18 18 18 18 18 18 18 18 18 18 18 18 18 18 18 18 18 18 18 16 16 16 16 16 16 16 16 16 16 16 16 16 16 16 16 16 16 16 16 16 16 16 16 16 16 16 16 16 16 16 16 16 16 16 16 16 16 16 16 16 16 16 16 19 19 19 19 16 16 16 16 16 16 16 16 16 16 16 16 16 16 16 16 16 16 16 16 19 19 19 19 19 19 19 19 18 18 18 18 18 18 18 18 20 20 20 20 20 20 20 20 21 21 21 21 20 20 20 20 19 19 19 19 16 16 16 16 14 14 14 14 14 14 14 14 17 17 17 17 17 17 17 17 18 18 18 18 20 20 20 20 18 18 18 18 17 17 17 17 17 17 17 17 17 17 17 17 14 14 14 14 14 14 14 14 14 14 14 14 14 14 14 14 14 14 14 14 14 14 14 14 14 14 14 14 14 14 14 14 15 15 15 15 15 15 15 15 17 17 17 17 17 17 17 17 14 14 14 14 14 14 14 14 17 17 17 17 16 16 16 16 15 15 15 15 15 15 15 15 15 15 15 15 15 15 15 15 15 15 15 15 14 14 14 14 15 15 15 15 14 14 14 14 12 12 12 12 15 15 15 15 17 17 17 17 17 17 17 17 17 17 17 17 16 16 16 16 18 18 18 18 19 19 19 19 19 19 19 19 22 22 22 22 21 21 21 21 24 24 24 24 24 24 24 24 25 25 25 25 29 29 29 29 27 27 27 27 28 28 28 28 31 31 31 31 32 32 32 32 31 31 31 31 27 27 27 27 42 42 42 42 44 44 44 44 47 47 47 47 46 46 46 46 43 43 43 43 43 43 43 43 38 38 38 38 32 32 32 32 27 27 27 27 26 26 26 26 17 17 17 17 10 10 10 10 10 10 10 10 10 10 10 10 10 10 10 10 10 10 10 10 13 13 13 13 12 12 12 12 12 12 12 12
30 30 30 30 32 32 32 32 34 34 34 34 37 37 37 37 46 46 46 46 60 60 60 60 50 50 50 50 49 49 49 49 62 62 62 62 63 63 63 63 58 58 58 58 48 48 48 48 48 48 48 48 43 43 43 43 30 30 30 30 31 31 31 31 31 31 31 31 24 24 24 24 21 21 21 21 21 21 21 21 21 21 21 21 21 21 21 21 21 21 21 21 21 21 21 21 21 21 21 21 26 26 26 26 24 24 24 24 27 27 27 27 31 31 31 31 30 30 30 30 30 30 30 30 30 30 30 30 30 30 30 30 31 31 31 31 29 29 29 29 28 28 28 28 27 27 27 27 27 27 27 27 26 26 26 26 21 21 21 21 20 20 20 20 16 16 16 16 16 16 16 16 16 16 16 16 16 16 16 16 16 16 16 16 16 16 16 16 16 16 16 16 16 16 16 16 16 16 16 16 16 16 16 16 16 16 16 16 16 16 16 16 16 16 16 16 16 16 16 16 16 16 16 16 16 16 16 16 16 16 16 16 16 16 16 16 19 19 19 19 18 18 18 18 20 20 20 20 20 20 20 20 20 20 20 20 21 21 21 21 21 21 21 21 21 21 21 21 21 21 21 21 24 24 24 24 23 23 23 23 23 23 23 23 25 25 25 25 29 29 29 29 27 27 27 27 27 27 27 27 27 27 27 27 31 31 31 31 31 31 31 31 30 30 30 30 30 30 30 30 32 32 32 32 32 32 32 32 36 36 36 36 38 38 38 38 38 38 38 38 38 38 38 38 40 40 40 40 41 41 41 41 43 43 43 43 45 45 45 45 45 45 45 45 48 48 48 48 49 49 49 49 45 45 45 45 43 43 43 43 46 46 46 46 48 48 48 48 49 49 49 49 57 57 57 57 64 64 64 64 61 61 61 61 60 60 60 60 52 52 52 52 50 50 50 50 48 48 48 48 48 48 48 48 48 48 48 48 48 48 48 48 46 46 46 46 45 45 45 45 45 45 45 45 45 45 45 45 48 48 48 48 49 49 49 49 51 51 51 51 45 45 45 45 40 40 40 40 37 37 37 37 34 34 34 34 36 36 36 36 30 30 30 30 30 30 30 30 33 33 33 33 36 36 36 36 38 38 38 38 38 38 38 38 34 34 34 34 32 32 32 32 33 33 33 33 24 24 24 24 21 21 21 21 21 21 21 21 20 20 20 20 20 20 20 20 20 20 20 20 22 22 22 22 26 26 26 26 26 26 26 26 29 29 29 29 21 21 21 21 20 20 20 20 18 18 18 18 18 18 18 18 18 18 18 18 18 18 18 18 18 18 18 18 18 18 18 18 16 16 16 16 16 16 16 16 16 16 16 16 16 16 16 16 16 16 16 16 16 16 16 16 16 16 16 16 16 16 16 16 16 16 16 16 16 16 16 16 16 16 16 16 19 19 19 19 16 16 16 16 16 16 16 16 16 16 16 16 16 16 16 16 16 16 16 16 19 19 19 19 19 19 19 19 18 18 18 18 18 18 18 18 20 20 20 20 20 20 20 20 21 21 21 21 20 20 20 20 19 19 19 19 16 16 16 16 14 14 14 14 14 14 14 14 17 17 17 17 17 17 17 17 18 18 18 18 20 20 20 20 18 18 18 18 17 17 17 17 17 17 17 17 17 17 17 17 14 14 14 14 14 14 14 14 14 14 14 14 14 14 14 14 14 14 14 14 14 14 14 14 14 14 14 14 14 14 14 14 15 15 15 15 15 15 15 15 17 17 17 17 17 17 17 17 14 14 14 14 14 14 14 14 17 17 17 17 16 16 16 16 15 15 15 15 15 15 15 15 15 15 15 15 15 15 15 15 15 15 15 15 14 14 14 14 15 15 15 15 14 14 14 14 12 12 12 12 15 15 15 15 17 17 17 17 17 17 17 17 17 17 17 17 16 16 16 16 18 18 18 18 19 19 19 19 19 19 19 19 22 22 22 22 21 21 21 21 24 24 24 24 24 24 24 24 25 25 25 25 29 29 29 29 27 27 27 27 28 28 28 28 31 31 31 31 32 32 32 32 31 31 31 31 27 27 27 27 42 42 42 42 44 44 44 44 47 47 47 47 46 46 46 46 43 43 43 43 43 43 43 43 38 38 38 38 32 32 32 32 27 27 27 27 26 26 26 26 17 17 17 17 10 10 10 10 10 10 10 10 10 10 10 10 10 10 10 10 10 10 10 10 13 13 13 13 12 12 12 12 12 12 12 12
30 30 30 30 32 32 32 32 34 34 34 34 37 37 37 37 46 46 46 46 60 60 60 60 50 50 50 50 49 49 49 49 62 62 62 62 63 63 63 63 58 58 58 58 48 48 48 48 48 48 48 48 43 43 43 43 30 30 30 30 31 31 31 31 31 31 31 31 24 24 24 24 21 21 21 21 21 21 21 21 21 21 21 21 21 21 21 21 21 21 21 21 21 21 21 21 21 21 21 21 26 26 26 26 24 24 24 24 27 27 27 27 31 31 31 31 30 30 30 30 30 30 30 30 30 30 30 30 30 30 30 30 31 31 31 31 29 29 29 29 28 28 28 28 27 27 27 27 27 27 27 27 26 26 26 26 21 21 21 21 20 20 20 20 16 16 16 16 16 16 16 16 16 16 16 16 16 16 16 16 16 16 16 16 16 16 16 16 16 16 16 16 16 16 16 16 16 16 16 16 16 16 16 16 16 16 16 16 16 16 16 16 16 16 16 16 16 16 16 16 16 16 16 16 16 16 16 16 16 16 16 16 16 16 16 16 19 19 19 19 18 18 18 18 20 20 20 20 20 20 20 20 20 20 20 20 21 21 21 21 21 21 21 21 21 21 21 21 21 21 21 21 24 24 24 24 23 23 23 23 23 23 23 23 25 25 25 25 29 29 29 29 27 27 27 27 27 27 27 27 27 27 27 27 31 31 31 31 31 31 31 31 30 30 30 30 30 30 30 30 32 32 32 32 32 32 32 32 36 36 36 36 38 38 38 38 38 38 38 38 38 38 38 38 40 40 40 40 41 41 41 41 43 43 43 43 45 45 45 45 45 45 45 45 48 48 48 48 49 49 49 49 45 45 45 45 43 43 43 43 46 46 46 46 48 48 48 48 49 49 49 49 57 57 57 57 64 64 64 64 61 61 61 61 60 60 60 60 52 52 52 52 50 50 50 50 48 48 48 48 48 48 48 48 48 48 48 48 48 48 48 48 46 46 46 46 45 45 45 45 45 45 45 45 45 45 45 45 48 48 48 48 49 49 49 49 51 51 51 51 45 45 45 45 40 40 40 40 37 37 37 37 34 34 34 34 36 36 36 36 30 30 30 30 30 30 30 30 33 33 33 33 36 36 36 36 38 38 38 38 38 38 38 38 34 34 34 34 32 32 32 32 33 33 33 33 24 24 24 24 21 21 21 21 21 21 21 21 20 20 20 20 20 20 20 20 20 20 20 20 22 22 22 22 26 26 26 26 26 26 26 26 29 29 29 29 21 21 21 21 20 20 20 20 18 18 18 18 18 18 18 18 18 18 18 18 18 18 18 18 18 18 18 18 18 18 18 18 16 16 16 16 16 16 16 16 16 16 16 16 16 16 16 16 16 16 16 16 16 16 16 16 16 16 16 16 16 16 16 16 16 16 16 16 16 16 16 16 16 16 16 16 19 19 19 19 16 16 16 16 16 16 16 16 16 16 16 16 16 16 16 16 16 16 16 16 19 19 19 19 19 19 19 19 18 18 18 18 18 18 18 18 20 20 20 20 20 20 20 20 21 21 21 21 20 20 20 20 19 19 19 19 16 16 16 16 14 14 14 14 14 14 14 14 17 17 17 17 17 17 17 17 18 18 18 18 20 20 20 20 18 18 18 18 17 17 17 17 17 17 17 17 17 17 17 17 14 14 14 14 14 14 14 14 14 14 14 14 14 14 14 14 14 14 14 14 14 14 14 14 14 14 14 14 14 14 14 14 15 15 15 15 15 15 15 15 17 17 17 17 17 17 17 17 14 14 14 14 14 14 14 14 17 17 17 17 16 16 16 16 15 15 15 15 15 15 15 15 15 15 15 15 15 15 15 15 15 15 15 15 14 14 14 14 15 15 15 15 14 14 14 14 12 12 12 12 15 15 15 15 17 17 17 17 17 17 17 17 17 17 17 17 16 16 16 16 18 18 18 18 19 19 19 19 19 19 19 19 22 22 22 22 21 21 21 21 24 24 24 24 24 24 24 24 25 25 25 25 29 29 29 29 27 27 27 27 28 28 28 28 31 31 31 31 32 32 32 32 31 31 31 31 27 27 27 27 42 42 42 42 44 44 44 44 47 47 47 47 46 46 46 46 43 43 43 43 43 43 43 43 38 38 38 38 32 32 32 32 27 27 27 27 26 26 26 26 17 17 17 17 10 10 10 10 10 10 10 10 10 10 10 10 10 10 10 10 10 10 10 10 13 13 13 13 12 12 12 12 12 12 12 12
30 30 30 30 32 32 32 32 34 34 34 34 37 37 37 37 46 46 46 46 60 60 60 60 50 50 50 50 49 49 49 49 62 62 62 62 63 63 63 63 58 58 58 58 48 48 48 48 48 48 48 48 43 43 43 43 30 30 30 30 31 31 31 31 31 31 31 31 24 24 24 24 21 21 21 21 21 21 21 21 21 21 21 21 21 21 21 21 21 21 21 21 21 21 21 21 21 21 21 21 26 26 26 26 24 24 24 24 27 27 27 27 31 31 31 31 30 30 30 30 30 30 30 30 30 30 30 30 30 30 30 30 31 31 31 31 29 29 29 29 28 28 28 28 27 27 27 27 27 27 27 27 26 26 26 26 21 21 21 21 20 20 20 20 16 16 16 16 16 16 16 16 16 16 16 16 16 16 16 16 16 16 16 16 16 16 16 16 16 16 16 16 16 16 16 16 16 16 16 16 16 16 16 16 16 16 16 16 16 16 16 16 16 16 16 16 16 16 16 16 16 16 16 16 16 16 16 16 16 16 16 16 16 16 16 16 19 19 19 19 18 18 18 18 20 20 20 20 20 20 20 20 20 20 20 20 21 21 21 21 21 21 21 21 21 21 21 21 21 21 21 21 24 24 24 24 23 23 23 23 23 23 23 23 25 25 25 25 29 29 29 29 27 27 27 27 27 27 27 27 27 27 27 27 31 31 31 31 31 31 31 31 30 30 30 30 30 30 30 30 32 32 32 32 32 32 32 32 36 36 36 36 38 38 38 38 38 38 38 38 38 38 38 38 40 40 40 40 41 41 41 41 43 43 43 43 45 45 45 45 45 45 45 45 48 48 48 48 49 49 49 49 45 45 45 45 43 43 43 43 46 46 46 46 48 48 48 48 49 49 49 49 57 57 57 57 64 64 64 64 61 61 61 61 60 60 60 60 52 52 52 52 50 50 50 50 48 48 48 48 48 48 48 48 48 48 48 48 48 48 48 48 46 46 46 46 45 45 45 45 45 45 45 45 45 45 45 45 48 48 48 48 49 49 49 49 51 51 51 51 45 45 45 45 40 40 40 40 37 37 37 37 34 34 34 34 36 36 36 36 30 30 30 30 30 30 30 30 33 33 33 33 36 36 36 36 38 38 38 38 38 38 38 38 34 34 34 34 32 32 32 32 33 33 33 33 24 24 24 24 21 21 21 21 21 21 21 21 20 20 20 20 20 20 20 20 20 20 20 20 22 22 22 22 26 26 26 26 26 26 26 26 29 29 29 29 21 21 21 21 20 20 20 20 18 18 18 18 18 18 18 18 18 18 18 18 18 18 18 18 18 18 18 18 18 18 18 18 16 16 16 16 16 16 16 16 16 16 16 16 16 16 16 16 16 16 16 16 16 16 16 16 16 16 16 16 16 16 16 16 16 16 16 16 16 16 16 16 16 16 16 16 19 19 19 19 16 16 16 16 16 16 16 16 16 16 16 16 16 16 16 16 16 16 16 16 19 19 19 19 19 19 19 19 18 18 18 18 18 18 18 18 20 20 20 20 20 20 20 20 21 21 21 21 20 20 20 20 19 19 19 19 16 16 16 16 14 14 14 14 14 14 14 14 17 17 17 17 17 17 17 17 18 18 18 18 20 20 20 20 18 18 18 18 17 17 17 17 17 17 17 17 17 17 17 17 14 14 14 14 14 14 14 14 14 14 14 14 14 14 14 14 14 14 14 14 14 14 14 14 14 14 14 14 14 14 14 14 15 15 15 15 15 15 15 15 17 17 17 17 17 17 17 17 14 14 14 14 14 14 14 14 17 17 17 17 16 16 16 16 15 15 15 15 15 15 15 15 15 15 15 15 15 15 15 15 15 15 15 15 14 14 14 14 15 15 15 15 14 14 14 14 12 12 12 12 15 15 15 15 17 17 17 17 17 17 17 17 17 17 17 17 16 16 16 16 18 18 18 18 19 19 19 19 19 19 19 19 22 22 22 22 21 21 21 21 24 24 24 24 24 24 24 24 25 25 25 25 29 29 29 29 27 27 27 27 28 28 28 28 31 31 31 31 32 32 32 32 31 31 31 31 27 27 27 27 42 42 42 42 44 44 44 44 47 47 47 47 46 46 46 46 43 43 43 43 43 43 43 43 38 38 38 38 32 32 32 32 27 27 27 27 26 26 26 26 17 17 17 17 10 10 10 10 10 10 10 10 10 10 10 10 10 10 10 10 10 10 10 10 13 13 13 13 12 12 12 12 12 12 12 12
32 32 32 32 32 32 32 32 38 38 38 38 41 41 41 41 48 48 48 48 64 64 64 64 59 59 59 59 59 59 59 59 65 65 65 65 73 73 73 73 67 67 67 67 61 61 61 61 48 48 48 48 46 46 46 46 37 37 37 37 33 33 33 33 30 30 30 30 27 27 27 27 26 26 26 26 21 21 21 21 21 21 21 21 21 21 21 21 21 21 21 21 21 21 21 21 21 21 21 21 21 21 21 21 21 21 21 21 25 25 25 25 27 27 27 27 27 27 27 27 31 31 31 31 31 31 31 31 27 27 27 27 28 28 28 28 23 23 23 23 28 28 28 28 27 27 27 27 27 27 27 27 28 28 28 28 24 24 24 24 20 20 20 20 19 19 19 19 16 16 16 16 16 16 16 16 16 16 16 16 16 16 16 16 16 16 16 16 16 16 16 16 16 16 16 16 16 16 16 16 16 16 16 16 16 16 16 16 16 16 16 16 16 16 16 16 16 16 16 16 19 19 19 19 19 19 19 19 19 19 19 19 18 18 18 18 20 20 20 20 20 20 20 20 22 22 22 22 22 22 22 22 21 21 21 21 21 21 21 21 26 26 26 26 21 21 21 21 26 26 26 26 24 24 24 24 25 25 25 25 25 25 25 25 28 28 28 28 29 29 29 29 27 27 27 27 27 27 27 27 31 31 31 31 31 31 31 31 30 30 30 30 30 30 30 30 30 30 30 30 32 32 32 32 32 32 32 32 32 32 32 32 32 32 32 32 32 32 32 32 34 34 34 34 38 38 38 38 39 39 39 39 40 40 40 40 42 42 42 42 44 44 44 44 45 45 45 45 45 45 45 45 43 43 43 43 45 45 45 45 46 46 46 46 47 47 47 47 50 50 50 50 55 55 55 55 61 61 61 61 59 59 59 59 57 57 57 57 52 52 52 52 50 50 50 50 48 48 48 48 46 46 46 46 44 44 44 44 43 43 43 43 41 41 41 41 43 43 43 43 42 42 42 42 43 43 43 43 46 46 46 46 48 48 48 48 48 48 48 48 47 47 47 47 43 43 43 43 41 41 41 41 40 40 40 40 38 38 38 38 33 33 33 33 30 30 30 30 33 33 33 33 32 32 32 32 34 34 34 34 34 34 34 34 38 38 38 38 32 32 32 32 30 30 30 30 28 28 28 28 24 24 24 24 21 21 21 21 22 22 22 22 20 20 20 20 20 20 20 20 21 21 21 21 28 28 28 28 25 25 25 25 27 27 27 27 27 27 27 27 21 21 21 21 20 20 20 20 20 20 20 20 20 20 20 20 20 20 20 20 20 20 20 20 20 20 20 20 20 20 20 20 18 18 18 18 18 18 18 18 19 19 19 19 19 19 19 19 18 18 18 18 18 18 18 18 18 18 18 18 20 20 20 20 20 20 20 20 22 22 22 22 21 21 21 21 21 21 21 21 24 24 24 24 19 19 19 19 19 19 19 19 16 16 16 16 16 16 16 16 16 16 16 16 16 16 16 16 19 19 19 19 18 18 18 18 20 20 20 20 20 20 20 20 18 18 18 18 16 16 16 16 17 17 17 17 17 17 17 17 17 17 17 17 17 17 17 17 16 16 16 16 22 22 22 22 21 21 21 21 21 21 21 21 26 26 26 26 41 41 41 41 30 30 30 30 16 16 16 16 14 14 14 14 14 14 14 14 14 14 14 14 14 14 14 14 14 14 14 14 15 15 15 15 15 15 15 15 14 14 14 14 14 14 14 14 17 17 17 17 14 14 14 14 15 15 15 15 14 14 14 14 16 16 16 16 16 16 16 16 16 16 16 16 14 14 14 14 14 14 14 14 16 16 16 16 16 16 16 16 17 17 17 17 17 17 17 17 15 15 15 15 12 12 12 12 12 12 12 12 15 15 15 15 17 17 17 17 17 17 17 17 16 16 16 16 16 16 16 16 16 16 16 16 19 19 19 19 21 21 21 21 26 26 26 26 23 23 23 23 25 25 25 25 29 29 29 29 27 27 27 27 29 29 29 29 23 23 23 23 27 27 27 27 32 32 32 32 38 38 38 38 32 32 32 32 40 40 40 40 42 42 42 42 45 45 45 45 45 45 45 45 45 45 45 45 40 40 40 40 32 32 32 32 30 30 30 30 28 28 28 28 26 26 26 26 14 14 14 14 10 10 10 10 10 10 10 10 10 10 10 10 10 10 10 10 11 11 11 11 13 13 13 13 12 12 12 12 12 12 12 12
32 32 32 32 32 32 32 32 38 38 38 38 41 41 41 41 48 48 48 48 64 64 64 64 59 59 59 59 59 59 59 59 65 65 65 65 73 73 73 73 67 67 67 67 61 61 61 61 48 48 48 48 46 46 46 46 37 37 37 37 33 33 33 33 30 30 30 30 27 27 27 27 26 26 26 26 21 21 21 21 21 21 21 21 21 21 21 21 21 21 21 21 21 21 21 21 21 21 21 21 21 21 21 21 21 21 21 21 25 25 25 25 27 27 27 27 27 27 27 27 31 31 31 31 31 31 31 31 27 27 27 27 28 28 28 28 23 23 23 23 28 28 28 28 27 27 27 27 27 27 27 27 28 28 28 28 24 24 24 24 20 20 20 20 19 19 19 19 16 16 16 16 16 16 16 16 16 16 16 16 16 16 16 16 16 16 16 16 16 16 16 16 16 16 16 16 16 16 16 16 16 16 16 16 16 16 16 16 16 16 16 16 16 16 16 16 16 16 16 16 19 19 19 19 19 19 19 19 19 19 19 19 18 18 18 18 20 20 20 20 20 20 20 20 22 22 22 22 22 22 22 22 21 21 21 21 21 21 21 21 26 26 26 26 21 21 21 21 26 26 26 26 24 24 24 24 25 25 25 25 25 25 25 25 28 28 28 28 29 29 29 29 27 27 27 27 27 27 27 27 31 31 31 31 31 31 31 31 30 30 30 30 30 30 30 30 30 30 30 30 32 32 32 32 32 32 32 32 32 32 32 32 32 32 32 32 32 32 32 32 34 34 34 34 38 38 38 38 39 39 39 39 40 40 40 40 42 42 42 42 44 44 44 44 45 45 45 45 45 45 45 45 43 43 43 43 45 45 45 45 46 46 46 46 47 47 47 47 50 50 50 50 55 55 55 55 61 61 61 61 59 59 59 59 57 57 57 57 52 52 52 52 50 50 50 50 48 48 48 48 46 46 46 46 44 44 44 44 43 43 43 43 41 41 41 41 43 43 43 43 42 42 42 42 43 43 43 43 46 46 46 46 48 48 48 48 48 48 48 48 47 47 47 47 43 43 43 43 41 41 41 41 40 40 40 40 38 38 38 38 33 33 33 33 30 30 30 30 33 33 33 33 32 32 32 32 34 34 34 34 34 34 34 34 38 38 38 38 32 32 32 32 30 30 30 30 28 28 28 28 24 24 24 24 21 21 21 21 22 22 22 22 20 20 20 20 20 20 20 20 21 21 21 21 28 28 28 28 25 25 25 25 27 27 27 27 27 27 27 27 21 21 21 21 20 20 20 20 20 20 20 20 20 20 20 20 20 20 20 20 20 20 20 20 20 20 20 20 20 20 20 20 18 18 18 18 18 18 18 18 19 19 19 19 19 19 19 19 18 18 18 18 18 18 18 18 18 18 18 18 20 20 20 20 20 20 20 20 22 22 22 22 21 21 21 21 21 21 21 21 24 24 24 24 19 19 19 19 19 19 19 19 16 16 16 16 16 16 16 16 16 16 16 16 16 16 16 16 19 19 19 19 18 18 18 18 20 20 20 20 20 20 20 20 18 18 18 18 16 16 16 16 17 17 17 17 17 17 17 17 17 17 17 17 17 17 17 17 16 16 16 16 22 22 22 22 21 21 21 21 21 21 21 21 26 26 26 26 41 41 41 41 30 30 30 30 16 16 16 16 14 14 14 14 14 14 14 14 14 14 14 14 14 14 14 14 14 14 14 14 15 15 15 15 15 15 15 15 14 14 14 14 14 14 14 14 17 17 17 17 14 14 14 14 15 15 15 15 14 14 14 14 16 16 16 16 16 16 16 16 16 16 16 16 14 14 14 14 14 14 14 14 16 16 16 16 16 16 16 16 17 17 17 17 17 17 17 17 15 15 15 15 12 12 12 12 12 12 12 12 15 15 15 15 17 17 17 17 17 17 17 17 16 16 16 16 16 16 16 16 16 16 16 16 19 19 19 19 21 21 21 21 26 26 26 26 23 23 23 23 25 25 25 25 29 29 29 29 27 27 27 27 29 29 29 29 23 23 23 23 27 27 27 27 32 32 32 32 38 38 38 38 32 32 32 32 40 40 40 40 42 42 42 42 45 45 45 45 45 45 45 45 45 45 45 45 40 40 40 40 32 32 32 32 30 30 30 30 28 28 28 28 26 26 26 26 14 14 14 14 10 10 10 10 10 10 10 10 10 10 10 10 10 10 10 10 11 11 11 11 13 13 13 13 12 12 12 12 12 12 12 12
32 32 32 32 32 32 32 32 38 38 38 38 41 41 41 41 48 48 48 48 64 64 64 64 59 59 59 59 59 59 59 59 65 65 65 65 73 73 73 73 67 67 67 67 61 61 61 61 48 48 48 48 46 46 46 46 37 37 37 37 33 33 33 33 30 30 30 30 27 27 27 27 26 26 26 26 21 21 21 21 21 21 21 21 21 21 21 21 21 21 21 21 21 21 21 21 21 21 21 21 21 21 21 21 21 21 21 21 25 25 25 25 27 27 27 27 27 27 27 27 31 31 31 31 31 31 31 31 27 27 27 27 28 28 28 28 23 23 23 23 28 28 28 28 27 27 27 27 27 27 27 27 28 28 28 28 24 24 24 24 20 20 20 20 19 19 19 19 16 16 16 16 16 16 16 16 16 16 16 16 16 16 16 16 16 16 16 16 16 16 16 16 16 16 16 16 16 16 16 16 16 16 16 16 16 16 16 16 16 16 16 16 16 16 16 16 16 16 16 16 19 19 19 19 19 19 19 19 19 19 19 19 18 18 18 18 20 20 20 20 20 20 20 20 22 22 22 22 22 22 22 22 21 21 21 21 21 21 21 21 26 26 26 26 21 21 21 21 26 26 26 26 24 24 24 24 25 25 25 25 25 25 25 25 28 28 28 28 29 29 29 29 27 27 27 27 27 27 27 27 31 31 31 31 31 31 31 31 30 30 30 30 30 30 30 30 30 30 30 30 32 32 32 32 32 32 32 32 32 32 32 32 32 32 32 32 32 32 32 32 34 34 34 34 38 38 38 38 39 39 39 39 40 40 40 40 42 42 42 42 44 44 44 44 45 45 45 45 45 45 45 45 43 43 43 43 45 45 45 45 46 46 46 46 47 47 47 47 50 50 50 50 55 55 55 55 61 61 61 61 59 59 59 59 57 57 57 57 52 52 52 52 50 50 50 50 48 48 48 48 46 46 46 46 44 44 44 44 43 43 43 43 41 41 41 41 43 43 43 43 42 42 42 42 43 43 43 43 46 46 46 46 48 48 48 48 48 48 48 48 47 47 47 47 43 43 43 43 41 41 41 41 40 40 40 40 38 38 38 38 33 33 33 33 30 30 30 30 33 33 33 33 32 32 32 32 34 34 34 34 34 34 34 34 38 38 38 38 32 32 32 32 30 30 30 30 28 28 28 28 24 24 24 24 21 21 21 21 22 22 22 22 20 20 20 20 20 20 20 20 21 21 21 21 28 28 28 28 25 25 25 25 27 27 27 27 27 27 27 27 21 21 21 21 20 20 20 20 20 20 20 20 20 20 20 20 20 20 20 20 20 20 20 20 20 20 20 20 20 20 20 20 18 18 18 18 18 18 18 18 19 19 19 19 19 19 19 19 18 18 18 18 18 18 18 18 18 18 18 18 20 20 20 20 20 20 20 20 22 22 22 22 21 21 21 21 21 21 21 21 24 24 24 24 19 19 19 19 19 19 19 19 16 16 16 16 16 16 16 16 16 16 16 16 16 16 16 16 19 19 19 19 18 18 18 18 20 20 20 20 20 20 20 20 18 18 18 18 16 16 16 16 17 17 17 17 17 17 17 17 17 17 17 17 17 17 17 17 16 16 16 16 22 22 22 22 21 21 21 21 21 21 21 21 26 26 26 26 41 41 41 41 30 30 30 30 16 16 16 16 14 14 14 14 14 14 14 14 14 14 14 14 14 14 14 14 14 14 14 14 15 15 15 15 15 15 15 15 14 14 14 14 14 14 14 14 17 17 17 17 14 14 14 14 15 15 15 15 14 14 14 14 16 16 16 16 16 16 16 16 16 16 16 16 14 14 14 14 14 14 14 14 16 16 16 16 16 16 16 16 17 17 17 17 17 17 17 17 15 15 15 15 12 12 12 12 12 12 12 12 15 15 15 15 17 17 17 17 17 17 17 17 16 16 16 16 16 16 16 16 16 16 16 16 19 19 19 19 21 21 21 21 26 26 26 26 23 23 23 23 25 25 25 25 29 29 29 29 27 27 27 27 29 29 29 29 23 23 23 23 27 27 27 27 32 32 32 32 38 38 38 38 32 32 32 32 40 40 40 40 42 42 42 42 45 45 45 45 45 45 45 45 45 45 45 45 40 40 40 40 32 32 32 32 30 30 30 30 28 28 28 28 26 26 26 26 14 14 14 14 10 10 10 10 10 10 10 10 10 10 10 10 10 10 10 10 11 11 11 11 13 13 13 13 12 12 12 12 12 12 12 12
32 32 32 32 32 32 32 32 38 38 38 38 41 41 41 41 48 48 48 48 64 64 64 64 59 59 59 59 59 59 59 59 65 65 65 65 73 73 73 73 67 67 67 67 61 61 61 61 48 48 48 48 46 46 46 46 37 37 37 37 33 33 33 33 30 30 30 30 27 27 27 27 26 26 26 26 21 21 21 21 21 21 21 21 21 21 21 21 21 21 21 21 21 21 21 21 21 21 21 21 21 21 21 21 21 21 21 21 25 25 25 25 27 27 27 27 27 27 27 27 31 31 31 31 31 31 31 31 27 27 27 27 28 28 28 28 23 23 23 23 28 28 28 28 27 27 27 27 27 27 27 27 28 28 28 28 24 24 24 24 20 20 20 20 19 19 19 19 16 16 16 16 16 16 16 16 16 16 16 16 16 16 16 16 16 16 16 16 16 16 16 16 16 16 16 16 16 16 16 16 16 16 16 16 16 16 16 16 16 16 16 16 16 16 16 16 16 16 16 16 19 19 19 19 19 19 19 19 19 19 19 19 18 18 18 18 20 20 20 20 20 20 20 20 22 22 22 22 22 22 22 22 21 21 21 21 21 21 21 21 26 26 26 26 21 21 21 21 26 26 26 26 24 24 24 24 25 25 25 25 25 25 25 25 28 28 28 28 29 29 29 29 27 27 27 27 27 27 27 27 31 31 31 31 31 31 31 31 30 30 30 30 30 30 30 30 30 30 30 30 32 32 32 32 32 32 32 32 32 32 32 32 32 32 32 32 32 32 32 32 34 34 34 34 38 38 38 38 39 39 39 39 40 40 40 40 42 42 42 42 44 44 44 44 45 45 45 45 45 45 45 45 43 43 43 43 45 45 45 45 46 46 46 46 47 47 47 47 50 50 50 50 55 55 55 55 61 61 61 61 59 59 59 59 57 57 57 57 52 52 52 52 50 50 50 50 48 48 48 48 46 46 46 46 44 44 44 44 43 43 43 43 41 41 41 41 43 43 43 43 42 42 42 42 43 43 43 43 46 46 46 46 48 48 48 48 48 48 48 48 47 47 47 47 43 43 43 43 41 41 41 41 40 40 40 40 38 38 38 38 33 33 33 33 30 30 30 30 33 33 33 33 32 32 32 32 34 34 34 34 34 34 34 34 38 38 38 38 32 32 32 32 30 30 30 30 28 28 28 28 24 24 24 24 21 21 21 21 22 22 22 22 20 20 20 20 20 20 20 20 21 21 21 21 28 28 28 28 25 25 25 25 27 27 27 27 27 27 27 27 21 21 21 21 20 20 20 20 20 20 20 20 20 20 20 20 20 20 20 20 20 20 20 20 20 20 20 20 20 20 20 20 18 18 18 18 18 18 18 18 19 19 19 19 19 19 19 19 18 18 18 18 18 18 18 18 18 18 18 18 20 20 20 20 20 20 20 20 22 22 22 22 21 21 21 21 21 21 21 21 24 24 24 24 19 19 19 19 19 19 19 19 16 16 16 16 16 16 16 16 16 16 16 16 16 16 16 16 19 19 19 19 18 18 18 18 20 20 20 20 20 20 20 20 18 18 18 18 16 16 16 16 17 17 17 17 17 17 17 17 17 17 17 17 17 17 17 17 16 16 16 16 22 22 22 22 21 21 21 21 21 21 21 21 26 26 26 26 41 41 41 41 30 30 30 30 16 16 16 16 14 14 14 14 14 14 14 14 14 14 14 14 14 14 14 14 14 14 14 14 15 15 15 15 15 15 15 15 14 14 14 14 14 14 14 14 17 17 17 17 14 14 14 14 15 15 15 15 14 14 14 14 16 16 16 16 16 16 16 16 16 16 16 16 14 14 14 14 14 14 14 14 16 16 16 16 16 16 16 16 17 17 17 17 17 17 17 17 15 15 15 15 12 12 12 12 12 12 12 12 15 15 15 15 17 17 17 17 17 17 17 17 16 16 16 16 16 16 16 16 16 16 16 16 19 19 19 19 21 21 21 21 26 26 26 26 23 23 23 23 25 25 25 25 29 29 29 29 27 27 27 27 29 29 29 29 23 23 23 23 27 27 27 27 32 32 32 32 38 38 38 38 32 32 32 32 40 40 40 40 42 42 42 42 45 45 45 45 45 45 45 45 45 45 45 45 40 40 40 40 32 32 32 32 30 30 30 30 28 28 28 28 26 26 26 26 14 14 14 14 10 10 10 10 10 10 10 10 10 10 10 10 10 10 10 10 11 11 11 11 13 13 13 13 12 12 12 12 12 12 12 12
