ncols        605
nrows        39
xllcorner    3075750
yllcorner    1962250
cellsize     250.000000000000
NODATA_value    -9999
131 131 131 131 130 130 130 130 133 133 133 133 133 133 133 133 135 135 135 135 136 136 136 136 131 131 131 131 128 128 128 128 124 124 124 124 122 122 122 122 124 124 124 124 125 125 125 125 121 121 121 121 122 122 122 122 122 122 122 122 123 123 123 123 126 126 126 126 124 124 124 124 126 126 126 126 123 123 123 123 124 124 124 124 128 128 128 128 127 127 127 127 127 127 127 127 128 128 128 128 128 128 128 128 127 127 127 127 124 124 124 124 126 126 126 126 126 126 126 126 124 124 124 124 128 128 128 128 128 128 128 128 133 133 133 133 128 128 128 128 127 127 127 127 124 124 124 124 124 124 124 124 127 127 127 127 133 133 133 133 127 127 127 127 125 125 125 125 125 125 125 125 122 122 122 122 119 119 119 119 119 119 119 119 112 112 112 112 116 116 116 116 116 116 116 116 116 116 116 116 116 116 116 116 116 116 116 116 116 116 116 116 118 118 118 118 118 118 118 118 117 117 117 117 118 118 118 118 117 117 117 117 117 117 117 117 117 117 117 117 117 117 117 117 122 122 122 122 120 120 120 120 123 123 123 123 122 122 122 122 122 122 122 122 121 121 121 121 126 126 126 126 121 121 121 121 123 123 123 123 124 124 124 124 127 127 127 127 127 127 127 127 124 124 124 124 127 127 127 127 127 127 127 127 128 128 128 128 128 128 128 128 128 128 128 128 128 128 128 128 128 128 128 128 128 128 128 128 128 128 128 128 133 133 133 133 130 130 130 130 131 131 131 131 133 133 133 133 132 132 132 132 129 129 129 129 140 140 140 140 140 140 140 140 140 140 140 140 140 140 140 140 129 129 129 129 136 136 136 136 132 132 132 132 130 130 130 130 132 132 132 132 140 140 140 140 136 136 136 136 133 133 133 133 128 128 128 128 128 128 128 128 128 128 128 128 128 128 128 128 124 124 124 124 125 125 125 125 123 123 123 123 120 120 120 120 126 126 126 126 126 126 126 126 125 125 125 125 125 125 125 125 121 121 121 121 125 125 125 125 124 124 124 124 125 125 125 125 127 127 127 127 128 128 128 128 133 133 133 133 130 130 130 130 130 130 130 130 133 133 133 133 130 130 130 130 130 130 130 130 130 130 130 130 130 130 130 130 130 130 130 130 131 131 131 131 130 130 130 130 130 130 130 130 130 130 130 130 131 131 131 131 135 135 135 135 136 136 136 136 135 135 135 135 131 131 131 131 131 131 131 131 131 131 131 131 131 131 131 131 129 129 129 129 140 140 140 140 145 145 145 145 143 143 143 143 143 143 143 143 142 142 142 142 144 144 144 144 148 148 148 148 146 146 146 146 153 153 153 153 155 155 155 155 157
131 131 131 131 130 130 130 130 133 133 133 133 133 133 133 133 135 135 135 135 136 136 136 136 131 131 131 131 128 128 128 128 124 124 124 124 122 122 122 122 124 124 124 124 125 125 125 125 121 121 121 121 122 122 122 122 122 122 122 122 123 123 123 123 126 126 126 126 124 124 124 124 126 126 126 126 123 123 123 123 124 124 124 124 128 128 128 128 127 127 127 127 127 127 127 127 128 128 128 128 128 128 128 128 127 127 127 127 124 124 124 124 126 126 126 126 126 126 126 126 124 124 124 124 128 128 128 128 128 128 128 128 133 133 133 133 128 128 128 128 127 127 127 127 124 124 124 124 124 124 124 124 127 127 127 127 133 133 133 133 127 127 127 127 125 125 125 125 125 125 125 125 122 122 122 122 119 119 119 119 119 119 119 119 112 112 112 112 116 116 116 116 116 116 116 116 116 116 116 116 116 116 116 116 116 116 116 116 116 116 116 116 118 118 118 118 118 118 118 118 117 117 117 117 118 118 118 118 117 117 117 117 117 117 117 117 117 117 117 117 117 117 117 117 122 122 122 122 120 120 120 120 123 123 123 123 122 122 122 122 122 122 122 122 121 121 121 121 126 126 126 126 121 121 121 121 123 123 123 123 124 124 124 124 127 127 127 127 127 127 127 127 124 124 124 124 127 127 127 127 127 127 127 127 128 128 128 128 128 128 128 128 128 128 128 128 128 128 128 128 128 128 128 128 128 128 128 128 128 128 128 128 133 133 133 133 130 130 130 130 131 131 131 131 133 133 133 133 132 132 132 132 129 129 129 129 140 140 140 140 140 140 140 140 140 140 140 140 140 140 140 140 129 129 129 129 136 136 136 136 132 132 132 132 130 130 130 130 132 132 132 132 140 140 140 140 136 136 136 136 133 133 133 133 128 128 128 128 128 128 128 128 128 128 128 128 128 128 128 128 124 124 124 124 125 125 125 125 123 123 123 123 120 120 120 120 126 126 126 126 126 126 126 126 125 125 125 125 125 125 125 125 121 121 121 121 125 125 125 125 124 124 124 124 125 125 125 125 127 127 127 127 128 128 128 128 133 133 133 133 130 130 130 130 130 130 130 130 133 133 133 133 130 130 130 130 130 130 130 130 130 130 130 130 130 130 130 130 130 130 130 130 131 131 131 131 130 130 130 130 130 130 130 130 130 130 130 130 131 131 131 131 135 135 135 135 136 136 136 136 135 135 135 135 131 131 131 131 131 131 131 131 131 131 131 131 131 131 131 131 129 129 129 129 140 140 140 140 145 145 145 145 143 143 143 143 143 143 143 143 142 142 142 142 144 144 144 144 148 148 148 148 146 146 146 146 153 153 153 153 155 155 155 155 157
132 132 132 132 131 131 131 131 132 132 132 132 133 133 133 133 131 131 131 131 129 129 129 129 131 131 131 131 133 133 133 133 127 127 127 127 124 124 124 124 128 128 128 128 127 127 127 127 125 125 125 125 123 123 123 123 120 120 120 120 125 125 125 125 127 127 127 127 128 128 128 128 127 127 127 127 127 127 127 127 128 128 128 128 130 130 130 130 130 130 130 130 133 133 133 133 133 133 133 133 130 130 130 130 133 133 133 133 128 128 128 128 124 124 124 124 127 127 127 127 128 128 128 128 130 130 130 130 133 133 133 133 130 130 130 130 130 130 130 130 133 133 133 133 127 127 127 127 125 125 125 125 127 127 127 127 133 133 133 133 133 133 133 133 128 128 128 128 128 128 128 128 125 125 125 125 117 117 117 117 122 122 122 122 117 117 117 117 117 117 117 117 117 117 117 117 118 118 118 118 118 118 118 118 118 118 118 118 117 117 117 117 117 117 117 117 117 117 117 117 117 117 117 117 117 117 117 117 117 117 117 117 122 122 122 122 117 117 117 117 122 122 122 122 123 123 123 123 123 123 123 123 121 121 121 121 123 123 123 123 122 122 122 122 120 120 120 120 126 126 126 126 126 126 126 126 126 126 126 126 127 127 127 127 128 128 128 128 128 128 128 128 128 128 128 128 128 128 128 128 133 133 133 133 131 131 131 131 135 135 135 135 131 131 131 131 131 131 131 131 130 130 130 130 131 131 131 131 133 133 133 133 130 130 130 130 136 136 136 136 136 136 136 136 131 131 131 131 131 131 131 131 129 129 129 129 140 140 140 140 140 140 140 140 140 140 140 140 140 140 140 140 140 140 140 140 134 134 134 134 140 140 140 140 135 135 135 135 136 136 136 136 134 134 134 134 137 137 137 137 133 133 133 133 130 130 130 130 130 130 130 130 131 131 131 131 131 131 131 131 133 133 133 133 127 127 127 127 127 127 127 127 124 124 124 124 127 127 127 127 127 127 127 127 127 127 127 127 127 127 127 127 128 128 128 128 127 127 127 127 128 128 128 128 127 127 127 127 133 133 133 133 130 130 130 130 130 130 130 130 131 131 131 131 130 130 130 130 130 130 130 130 131 131 131 131 131 131 131 131 131 131 131 131 131 131 131 131 131 131 131 131 132 132 132 132 131 131 131 131 131 131 131 131 131 131 131 131 132 132 132 132 129 129 129 129 140 140 140 140 129 129 129 129 129 129 129 129 135 135 135 135 135 135 135 135 132 132 132 132 131 131 131 131 135 135 135 135 140 140 140 140 141 141 141 141 134 134 134 134 139 139 139 139 144 144 144 144 148 148 148 148 149 149 149 149 150 150 150 150 159 159 159 159 154
132 132 132 132 131 131 131 131 132 132 132 132 133 133 133 133 131 131 131 131 129 129 129 129 131 131 131 131 133 133 133 133 127 127 127 127 124 124 124 124 128 128 128 128 127 127 127 127 125 125 125 125 123 123 123 123 120 120 120 120 125 125 125 125 127 127 127 127 128 128 128 128 127 127 127 127 127 127 127 127 128 128 128 128 130 130 130 130 130 130 130 130 133 133 133 133 133 133 133 133 130 130 130 130 133 133 133 133 128 128 128 128 124 124 124 124 127 127 127 127 128 128 128 128 130 130 130 130 133 133 133 133 130 130 130 130 130 130 130 130 133 133 133 133 127 127 127 127 125 125 125 125 127 127 127 127 133 133 133 133 133 133 133 133 128 128 128 128 128 128 128 128 125 125 125 125 117 117 117 117 122 122 122 122 117 117 117 117 117 117 117 117 117 117 117 117 118 118 118 118 118 118 118 118 118 118 118 118 117 117 117 117 117 117 117 117 117 117 117 117 117 117 117 117 117 117 117 117 117 117 117 117 122 122 122 122 117 117 117 117 122 122 122 122 123 123 123 123 123 123 123 123 121 121 121 121 123 123 123 123 122 122 122 122 120 120 120 120 126 126 126 126 126 126 126 126 126 126 126 126 127 127 127 127 128 128 128 128 128 128 128 128 128 128 128 128 128 128 128 128 133 133 133 133 131 131 131 131 135 135 135 135 131 131 131 131 131 131 131 131 130 130 130 130 131 131 131 131 133 133 133 133 130 130 130 130 136 136 136 136 136 136 136 136 131 131 131 131 131 131 131 131 129 129 129 129 140 140 140 140 140 140 140 140 140 140 140 140 140 140 140 140 140 140 140 140 134 134 134 134 140 140 140 140 135 135 135 135 136 136 136 136 134 134 134 134 137 137 137 137 133 133 133 133 130 130 130 130 130 130 130 130 131 131 131 131 131 131 131 131 133 133 133 133 127 127 127 127 127 127 127 127 124 124 124 124 127 127 127 127 127 127 127 127 127 127 127 127 127 127 127 127 128 128 128 128 127 127 127 127 128 128 128 128 127 127 127 127 133 133 133 133 130 130 130 130 130 130 130 130 131 131 131 131 130 130 130 130 130 130 130 130 131 131 131 131 131 131 131 131 131 131 131 131 131 131 131 131 131 131 131 131 132 132 132 132 131 131 131 131 131 131 131 131 131 131 131 131 132 132 132 132 129 129 129 129 140 140 140 140 129 129 129 129 129 129 129 129 135 135 135 135 135 135 135 135 132 132 132 132 131 131 131 131 135 135 135 135 140 140 140 140 141 141 141 141 134 134 134 134 139 139 139 139 144 144 144 144 148 148 148 148 149 149 149 149 150 150 150 150 159 159 159 159 154
132 132 132 132 131 131 131 131 132 132 132 132 133 133 133 133 131 131 131 131 129 129 129 129 131 131 131 131 133 133 133 133 127 127 127 127 124 124 124 124 128 128 128 128 127 127 127 127 125 125 125 125 123 123 123 123 120 120 120 120 125 125 125 125 127 127 127 127 128 128 128 128 127 127 127 127 127 127 127 127 128 128 128 128 130 130 130 130 130 130 130 130 133 133 133 133 133 133 133 133 130 130 130 130 133 133 133 133 128 128 128 128 124 124 124 124 127 127 127 127 128 128 128 128 130 130 130 130 133 133 133 133 130 130 130 130 130 130 130 130 133 133 133 133 127 127 127 127 125 125 125 125 127 127 127 127 133 133 133 133 133 133 133 133 128 128 128 128 128 128 128 128 125 125 125 125 117 117 117 117 122 122 122 122 117 117 117 117 117 117 117 117 117 117 117 117 118 118 118 118 118 118 118 118 118 118 118 118 117 117 117 117 117 117 117 117 117 117 117 117 117 117 117 117 117 117 117 117 117 117 117 117 122 122 122 122 117 117 117 117 122 122 122 122 123 123 123 123 123 123 123 123 121 121 121 121 123 123 123 123 122 122 122 122 120 120 120 120 126 126 126 126 126 126 126 126 126 126 126 126 127 127 127 127 128 128 128 128 128 128 128 128 128 128 128 128 128 128 128 128 133 133 133 133 131 131 131 131 135 135 135 135 131 131 131 131 131 131 131 131 130 130 130 130 131 131 131 131 133 133 133 133 130 130 130 130 136 136 136 136 136 136 136 136 131 131 131 131 131 131 131 131 129 129 129 129 140 140 140 140 140 140 140 140 140 140 140 140 140 140 140 140 140 140 140 140 134 134 134 134 140 140 140 140 135 135 135 135 136 136 136 136 134 134 134 134 137 137 137 137 133 133 133 133 130 130 130 130 130 130 130 130 131 131 131 131 131 131 131 131 133 133 133 133 127 127 127 127 127 127 127 127 124 124 124 124 127 127 127 127 127 127 127 127 127 127 127 127 127 127 127 127 128 128 128 128 127 127 127 127 128 128 128 128 127 127 127 127 133 133 133 133 130 130 130 130 130 130 130 130 131 131 131 131 130 130 130 130 130 130 130 130 131 131 131 131 131 131 131 131 131 131 131 131 131 131 131 131 131 131 131 131 132 132 132 132 131 131 131 131 131 131 131 131 131 131 131 131 132 132 132 132 129 129 129 129 140 140 140 140 129 129 129 129 129 129 129 129 135 135 135 135 135 135 135 135 132 132 132 132 131 131 131 131 135 135 135 135 140 140 140 140 141 141 141 141 134 134 134 134 139 139 139 139 144 144 144 144 148 148 148 148 149 149 149 149 150 150 150 150 159 159 159 159 154
132 132 132 132 131 131 131 131 132 132 132 132 133 133 133 133 131 131 131 131 129 129 129 129 131 131 131 131 133 133 133 133 127 127 127 127 124 124 124 124 128 128 128 128 127 127 127 127 125 125 125 125 123 123 123 123 120 120 120 120 125 125 125 125 127 127 127 127 128 128 128 128 127 127 127 127 127 127 127 127 128 128 128 128 130 130 130 130 130 130 130 130 133 133 133 133 133 133 133 133 130 130 130 130 133 133 133 133 128 128 128 128 124 124 124 124 127 127 127 127 128 128 128 128 130 130 130 130 133 133 133 133 130 130 130 130 130 130 130 130 133 133 133 133 127 127 127 127 125 125 125 125 127 127 127 127 133 133 133 133 133 133 133 133 128 128 128 128 128 128 128 128 125 125 125 125 117 117 117 117 122 122 122 122 117 117 117 117 117 117 117 117 117 117 117 117 118 118 118 118 118 118 118 118 118 118 118 118 117 117 117 117 117 117 117 117 117 117 117 117 117 117 117 117 117 117 117 117 117 117 117 117 122 122 122 122 117 117 117 117 122 122 122 122 123 123 123 123 123 123 123 123 121 121 121 121 123 123 123 123 122 122 122 122 120 120 120 120 126 126 126 126 126 126 126 126 126 126 126 126 127 127 127 127 128 128 128 128 128 128 128 128 128 128 128 128 128 128 128 128 133 133 133 133 131 131 131 131 135 135 135 135 131 131 131 131 131 131 131 131 130 130 130 130 131 131 131 131 133 133 133 133 130 130 130 130 136 136 136 136 136 136 136 136 131 131 131 131 131 131 131 131 129 129 129 129 140 140 140 140 140 140 140 140 140 140 140 140 140 140 140 140 140 140 140 140 134 134 134 134 140 140 140 140 135 135 135 135 136 136 136 136 134 134 134 134 137 137 137 137 133 133 133 133 130 130 130 130 130 130 130 130 131 131 131 131 131 131 131 131 133 133 133 133 127 127 127 127 127 127 127 127 124 124 124 124 127 127 127 127 127 127 127 127 127 127 127 127 127 127 127 127 128 128 128 128 127 127 127 127 128 128 128 128 127 127 127 127 133 133 133 133 130 130 130 130 130 130 130 130 131 131 131 131 130 130 130 130 130 130 130 130 131 131 131 131 131 131 131 131 131 131 131 131 131 131 131 131 131 131 131 131 132 132 132 132 131 131 131 131 131 131 131 131 131 131 131 131 132 132 132 132 129 129 129 129 140 140 140 140 129 129 129 129 129 129 129 129 135 135 135 135 135 135 135 135 132 132 132 132 131 131 131 131 135 135 135 135 140 140 140 140 141 141 141 141 134 134 134 134 139 139 139 139 144 144 144 144 148 148 148 148 149 149 149 149 150 150 150 150 159 159 159 159 154
136 136 136 136 135 135 135 135 135 135 135 135 130 130 130 130 136 136 136 136 129 129 129 129 132 132 132 132 130 130 130 130 127 127 127 127 127 127 127 127 133 133 133 133 128 128 128 128 127 127 127 127 125 125 125 125 121 121 121 121 127 127 127 127 128 128 128 128 130 130 130 130 133 133 133 133 133 133 133 133 130 130 130 130 131 131 131 131 131 131 131 131 130 130 130 130 130 130 130 130 131 131 131 131 131 131 131 131 131 131 131 131 133 133 133 133 133 133 133 133 130 130 130 130 130 130 130 130 130 130 130 130 130 130 130 130 131 131 131 131 130 130 130 130 128 128 128 128 124 124 124 124 127 127 127 127 128 128 128 128 130 130 130 130 130 130 130 130 130 130 130 130 127 127 127 127 127 127 127 127 124 124 124 124 126 126 126 126 125 125 125 125 123 123 123 123 120 120 120 120 122 122 122 122 122 122 122 122 122 122 122 122 122 122 122 122 122 122 122 122 122 122 122 122 120 120 120 120 122 122 122 122 122 122 122 122 117 117 117 117 122 122 122 122 126 126 126 126 126 126 126 126 126 126 126 126 126 126 126 126 120 120 120 120 122 122 122 122 123 123 123 123 121 121 121 121 124 124 124 124 128 128 128 128 131 131 131 131 132 132 132 132 131 131 131 131 132 132 132 132 135 135 135 135 135 135 135 135 129 129 129 129 129 129 129 129 136 136 136 136 136 136 136 136 136 136 136 136 130 130 130 130 136 136 136 136 137 137 137 137 137 137 137 137 137 137 137 137 132 132 132 132 135 135 135 135 140 140 140 140 140 140 140 140 140 140 140 140 140 140 140 140 134 134 134 134 134 134 134 134 140 140 140 140 129 129 129 129 137 137 137 137 140 140 140 140 129 129 129 129 131 131 131 131 131 131 131 131 136 136 136 136 135 135 135 135 129 129 129 129 130 130 130 130 133 133 133 133 128 128 128 128 128 128 128 128 128 128 128 128 128 128 128 128 128 128 128 128 133 133 133 133 130 130 130 130 130 130 130 130 133 133 133 133 127 127 127 127 131 131 131 131 131 131 131 131 131 131 131 131 132 132 132 132 130 130 130 130 131 131 131 131 132 132 132 132 135 135 135 135 135 135 135 135 135 135 135 135 135 135 135 135 136 136 136 136 135 135 135 135 131 131 131 131 131 131 131 131 129 129 129 129 140 140 140 140 134 134 134 134 140 140 140 140 140 140 140 140 140 140 140 140 129 129 129 129 137 137 137 137 135 135 135 135 140 140 140 140 141 141 141 141 138 138 138 138 141 141 141 141 142 142 142 142 144 144 144 144 146 146 146 146 153 153 153 153 155 155 155 155 157 157 157 157 156
136 136 136 136 135 135 135 135 135 135 135 135 130 130 130 130 136 136 136 136 129 129 129 129 132 132 132 132 130 130 130 130 127 127 127 127 127 127 127 127 133 133 133 133 128 128 128 128 127 127 127 127 125 125 125 125 121 121 121 121 127 127 127 127 128 128 128 128 130 130 130 130 133 133 133 133 133 133 133 133 130 130 130 130 131 131 131 131 131 131 131 131 130 130 130 130 130 130 130 130 131 131 131 131 131 131 131 131 131 131 131 131 133 133 133 133 133 133 133 133 130 130 130 130 130 130 130 130 130 130 130 130 130 130 130 130 131 131 131 131 130 130 130 130 128 128 128 128 124 124 124 124 127 127 127 127 128 128 128 128 130 130 130 130 130 130 130 130 130 130 130 130 127 127 127 127 127 127 127 127 124 124 124 124 126 126 126 126 125 125 125 125 123 123 123 123 120 120 120 120 122 122 122 122 122 122 122 122 122 122 122 122 122 122 122 122 122 122 122 122 122 122 122 122 120 120 120 120 122 122 122 122 122 122 122 122 117 117 117 117 122 122 122 122 126 126 126 126 126 126 126 126 126 126 126 126 126 126 126 126 120 120 120 120 122 122 122 122 123 123 123 123 121 121 121 121 124 124 124 124 128 128 128 128 131 131 131 131 132 132 132 132 131 131 131 131 132 132 132 132 135 135 135 135 135 135 135 135 129 129 129 129 129 129 129 129 136 136 136 136 136 136 136 136 136 136 136 136 130 130 130 130 136 136 136 136 137 137 137 137 137 137 137 137 137 137 137 137 132 132 132 132 135 135 135 135 140 140 140 140 140 140 140 140 140 140 140 140 140 140 140 140 134 134 134 134 134 134 134 134 140 140 140 140 129 129 129 129 137 137 137 137 140 140 140 140 129 129 129 129 131 131 131 131 131 131 131 131 136 136 136 136 135 135 135 135 129 129 129 129 130 130 130 130 133 133 133 133 128 128 128 128 128 128 128 128 128 128 128 128 128 128 128 128 128 128 128 128 133 133 133 133 130 130 130 130 130 130 130 130 133 133 133 133 127 127 127 127 131 131 131 131 131 131 131 131 131 131 131 131 132 132 132 132 130 130 130 130 131 131 131 131 132 132 132 132 135 135 135 135 135 135 135 135 135 135 135 135 135 135 135 135 136 136 136 136 135 135 135 135 131 131 131 131 131 131 131 131 129 129 129 129 140 140 140 140 134 134 134 134 140 140 140 140 140 140 140 140 140 140 140 140 129 129 129 129 137 137 137 137 135 135 135 135 140 140 140 140 141 141 141 141 138 138 138 138 141 141 141 141 142 142 142 142 144 144 144 144 146 146 146 146 153 153 153 153 155 155 155 155 157 157 157 157 156
136 136 136 136 135 135 135 135 135 135 135 135 130 130 130 130 136 136 136 136 129 129 129 129 132 132 132 132 130 130 130 130 127 127 127 127 127 127 127 127 133 133 133 133 128 128 128 128 127 127 127 127 125 125 125 125 121 121 121 121 127 127 127 127 128 128 128 128 130 130 130 130 133 133 133 133 133 133 133 133 130 130 130 130 131 131 131 131 131 131 131 131 130 130 130 130 130 130 130 130 131 131 131 131 131 131 131 131 131 131 131 131 133 133 133 133 133 133 133 133 130 130 130 130 130 130 130 130 130 130 130 130 130 130 130 130 131 131 131 131 130 130 130 130 128 128 128 128 124 124 124 124 127 127 127 127 128 128 128 128 130 130 130 130 130 130 130 130 130 130 130 130 127 127 127 127 127 127 127 127 124 124 124 124 126 126 126 126 125 125 125 125 123 123 123 123 120 120 120 120 122 122 122 122 122 122 122 122 122 122 122 122 122 122 122 122 122 122 122 122 122 122 122 122 120 120 120 120 122 122 122 122 122 122 122 122 117 117 117 117 122 122 122 122 126 126 126 126 126 126 126 126 126 126 126 126 126 126 126 126 120 120 120 120 122 122 122 122 123 123 123 123 121 121 121 121 124 124 124 124 128 128 128 128 131 131 131 131 132 132 132 132 131 131 131 131 132 132 132 132 135 135 135 135 135 135 135 135 129 129 129 129 129 129 129 129 136 136 136 136 136 136 136 136 136 136 136 136 130 130 130 130 136 136 136 136 137 137 137 137 137 137 137 137 137 137 137 137 132 132 132 132 135 135 135 135 140 140 140 140 140 140 140 140 140 140 140 140 140 140 140 140 134 134 134 134 134 134 134 134 140 140 140 140 129 129 129 129 137 137 137 137 140 140 140 140 129 129 129 129 131 131 131 131 131 131 131 131 136 136 136 136 135 135 135 135 129 129 129 129 130 130 130 130 133 133 133 133 128 128 128 128 128 128 128 128 128 128 128 128 128 128 128 128 128 128 128 128 133 133 133 133 130 130 130 130 130 130 130 130 133 133 133 133 127 127 127 127 131 131 131 131 131 131 131 131 131 131 131 131 132 132 132 132 130 130 130 130 131 131 131 131 132 132 132 132 135 135 135 135 135 135 135 135 135 135 135 135 135 135 135 135 136 136 136 136 135 135 135 135 131 131 131 131 131 131 131 131 129 129 129 129 140 140 140 140 134 134 134 134 140 140 140 140 140 140 140 140 140 140 140 140 129 129 129 129 137 137 137 137 135 135 135 135 140 140 140 140 141 141 141 141 138 138 138 138 141 141 141 141 142 142 142 142 144 144 144 144 146 146 146 146 153 153 153 153 155 155 155 155 157 157 157 157 156
136 136 136 136 135 135 135 135 135 135 135 135 130 130 130 130 136 136 136 136 129 129 129 129 132 132 132 132 130 130 130 130 127 127 127 127 127 127 127 127 133 133 133 133 128 128 128 128 127 127 127 127 125 125 125 125 121 121 121 121 127 127 127 127 128 128 128 128 130 130 130 130 133 133 133 133 133 133 133 133 130 130 130 130 131 131 131 131 131 131 131 131 130 130 130 130 130 130 130 130 131 131 131 131 131 131 131 131 131 131 131 131 133 133 133 133 133 133 133 133 130 130 130 130 130 130 130 130 130 130 130 130 130 130 130 130 131 131 131 131 130 130 130 130 128 128 128 128 124 124 124 124 127 127 127 127 128 128 128 128 130 130 130 130 130 130 130 130 130 130 130 130 127 127 127 127 127 127 127 127 124 124 124 124 126 126 126 126 125 125 125 125 123 123 123 123 120 120 120 120 122 122 122 122 122 122 122 122 122 122 122 122 122 122 122 122 122 122 122 122 122 122 122 122 120 120 120 120 122 122 122 122 122 122 122 122 117 117 117 117 122 122 122 122 126 126 126 126 126 126 126 126 126 126 126 126 126 126 126 126 120 120 120 120 122 122 122 122 123 123 123 123 121 121 121 121 124 124 124 124 128 128 128 128 131 131 131 131 132 132 132 132 131 131 131 131 132 132 132 132 135 135 135 135 135 135 135 135 129 129 129 129 129 129 129 129 136 136 136 136 136 136 136 136 136 136 136 136 130 130 130 130 136 136 136 136 137 137 137 137 137 137 137 137 137 137 137 137 132 132 132 132 135 135 135 135 140 140 140 140 140 140 140 140 140 140 140 140 140 140 140 140 134 134 134 134 134 134 134 134 140 140 140 140 129 129 129 129 137 137 137 137 140 140 140 140 129 129 129 129 131 131 131 131 131 131 131 131 136 136 136 136 135 135 135 135 129 129 129 129 130 130 130 130 133 133 133 133 128 128 128 128 128 128 128 128 128 128 128 128 128 128 128 128 128 128 128 128 133 133 133 133 130 130 130 130 130 130 130 130 133 133 133 133 127 127 127 127 131 131 131 131 131 131 131 131 131 131 131 131 132 132 132 132 130 130 130 130 131 131 131 131 132 132 132 132 135 135 135 135 135 135 135 135 135 135 135 135 135 135 135 135 136 136 136 136 135 135 135 135 131 131 131 131 131 131 131 131 129 129 129 129 140 140 140 140 134 134 134 134 140 140 140 140 140 140 140 140 140 140 140 140 129 129 129 129 137 137 137 137 135 135 135 135 140 140 140 140 141 141 141 141 138 138 138 138 141 141 141 141 142 142 142 142 144 144 144 144 146 146 146 146 153 153 153 153 155 155 155 155 157 157 157 157 156
129 129 129 129 129 129 129 129 136 136 136 136 130 130 130 130 129 129 129 129 137 137 137 137 136 136 136 136 130 130 130 130 127 127 127 127 128 128 128 128 130 130 130 130 128 128 128 128 128 128 128 128 127 127 127 127 124 124 124 124 124 124 124 124 127 127 127 127 133 133 133 133 130 130 130 130 130 130 130 130 131 131 131 131 131 131 131 131 131 131 131 131 131 131 131 131 132 132 132 132 132 132 132 132 136 136 136 136 136 136 136 136 131 131 131 131 130 130 130 130 130 130 130 130 131 131 131 131 131 131 131 131 131 131 131 131 131 131 131 131 130 130 130 130 128 128 128 128 127 127 127 127 127 127 127 127 128 128 128 128 130 130 130 130 131 131 131 131 130 130 130 130 128 128 128 128 133 133 133 133 127 127 127 127 127 127 127 127 127 127 127 127 124 124 124 124 124 124 124 124 124 124 124 124 126 126 126 126 126 126 126 126 121 121 121 121 121 121 121 121 121 121 121 121 123 123 123 123 120 120 120 120 121 121 121 121 117 117 117 117 122 122 122 122 125 125 125 125 125 125 125 125 125 125 125 125 124 124 124 124 121 121 121 121 122 122 122 122 122 122 122 122 123 123 123 123 126 126 126 126 127 127 127 127 128 128 128 128 130 130 130 130 132 132 132 132 135 135 135 135 135 135 135 135 129 129 129 129 137 137 137 137 137 137 137 137 137 137 137 137 137 137 137 137 137 137 137 137 135 135 135 135 131 131 131 131 129 129 129 129 137 137 137 137 137 137 137 137 137 137 137 137 129 129 129 129 140 140 140 140 140 140 140 140 140 140 140 140 134 134 134 134 134 134 134 134 134 134 134 134 134 134 134 134 134 134 134 134 134 134 134 134 134 134 134 134 137 137 137 137 140 140 140 140 129 129 129 129 140 140 140 140 140 140 140 140 134 134 134 134 135 135 135 135 130 130 130 130 130 130 130 130 133 133 133 133 133 133 133 133 130 130 130 130 130 130 130 130 130 130 130 130 131 131 131 131 130 130 130 130 130 130 130 130 133 133 133 133 131 131 131 131 135 135 135 135 136 136 136 136 136 136 136 136 131 131 131 131 131 131 131 131 135 135 135 135 129 129 129 129 129 129 129 129 129 129 129 129 129 129 129 129 129 129 129 129 136 136 136 136 132 132 132 132 131 131 131 131 129 129 129 129 134 134 134 134 141 141 141 141 141 141 141 141 145 145 145 145 145 145 145 145 145 145 145 145 138 138 138 138 137 137 137 137 138 138 138 138 142 142 142 142 143 143 143 143 143 143 143 143 148 148 148 148 144 144 144 144 153 153 153 153 150 150 150 150 154 154 154 154 158 158 158 158 153
129 129 129 129 129 129 129 129 136 136 136 136 130 130 130 130 129 129 129 129 137 137 137 137 136 136 136 136 130 130 130 130 127 127 127 127 128 128 128 128 130 130 130 130 128 128 128 128 128 128 128 128 127 127 127 127 124 124 124 124 124 124 124 124 127 127 127 127 133 133 133 133 130 130 130 130 130 130 130 130 131 131 131 131 131 131 131 131 131 131 131 131 131 131 131 131 132 132 132 132 132 132 132 132 136 136 136 136 136 136 136 136 131 131 131 131 130 130 130 130 130 130 130 130 131 131 131 131 131 131 131 131 131 131 131 131 131 131 131 131 130 130 130 130 128 128 128 128 127 127 127 127 127 127 127 127 128 128 128 128 130 130 130 130 131 131 131 131 130 130 130 130 128 128 128 128 133 133 133 133 127 127 127 127 127 127 127 127 127 127 127 127 124 124 124 124 124 124 124 124 124 124 124 124 126 126 126 126 126 126 126 126 121 121 121 121 121 121 121 121 121 121 121 121 123 123 123 123 120 120 120 120 121 121 121 121 117 117 117 117 122 122 122 122 125 125 125 125 125 125 125 125 125 125 125 125 124 124 124 124 121 121 121 121 122 122 122 122 122 122 122 122 123 123 123 123 126 126 126 126 127 127 127 127 128 128 128 128 130 130 130 130 132 132 132 132 135 135 135 135 135 135 135 135 129 129 129 129 137 137 137 137 137 137 137 137 137 137 137 137 137 137 137 137 137 137 137 137 135 135 135 135 131 131 131 131 129 129 129 129 137 137 137 137 137 137 137 137 137 137 137 137 129 129 129 129 140 140 140 140 140 140 140 140 140 140 140 140 134 134 134 134 134 134 134 134 134 134 134 134 134 134 134 134 134 134 134 134 134 134 134 134 134 134 134 134 137 137 137 137 140 140 140 140 129 129 129 129 140 140 140 140 140 140 140 140 134 134 134 134 135 135 135 135 130 130 130 130 130 130 130 130 133 133 133 133 133 133 133 133 130 130 130 130 130 130 130 130 130 130 130 130 131 131 131 131 130 130 130 130 130 130 130 130 133 133 133 133 131 131 131 131 135 135 135 135 136 136 136 136 136 136 136 136 131 131 131 131 131 131 131 131 135 135 135 135 129 129 129 129 129 129 129 129 129 129 129 129 129 129 129 129 129 129 129 129 136 136 136 136 132 132 132 132 131 131 131 131 129 129 129 129 134 134 134 134 141 141 141 141 141 141 141 141 145 145 145 145 145 145 145 145 145 145 145 145 138 138 138 138 137 137 137 137 138 138 138 138 142 142 142 142 143 143 143 143 143 143 143 143 148 148 148 148 144 144 144 144 153 153 153 153 150 150 150 150 154 154 154 154 158 158 158 158 153
129 129 129 129 129 129 129 129 136 136 136 136 130 130 130 130 129 129 129 129 137 137 137 137 136 136 136 136 130 130 130 130 127 127 127 127 128 128 128 128 130 130 130 130 128 128 128 128 128 128 128 128 127 127 127 127 124 124 124 124 124 124 124 124 127 127 127 127 133 133 133 133 130 130 130 130 130 130 130 130 131 131 131 131 131 131 131 131 131 131 131 131 131 131 131 131 132 132 132 132 132 132 132 132 136 136 136 136 136 136 136 136 131 131 131 131 130 130 130 130 130 130 130 130 131 131 131 131 131 131 131 131 131 131 131 131 131 131 131 131 130 130 130 130 128 128 128 128 127 127 127 127 127 127 127 127 128 128 128 128 130 130 130 130 131 131 131 131 130 130 130 130 128 128 128 128 133 133 133 133 127 127 127 127 127 127 127 127 127 127 127 127 124 124 124 124 124 124 124 124 124 124 124 124 126 126 126 126 126 126 126 126 121 121 121 121 121 121 121 121 121 121 121 121 123 123 123 123 120 120 120 120 121 121 121 121 117 117 117 117 122 122 122 122 125 125 125 125 125 125 125 125 125 125 125 125 124 124 124 124 121 121 121 121 122 122 122 122 122 122 122 122 123 123 123 123 126 126 126 126 127 127 127 127 128 128 128 128 130 130 130 130 132 132 132 132 135 135 135 135 135 135 135 135 129 129 129 129 137 137 137 137 137 137 137 137 137 137 137 137 137 137 137 137 137 137 137 137 135 135 135 135 131 131 131 131 129 129 129 129 137 137 137 137 137 137 137 137 137 137 137 137 129 129 129 129 140 140 140 140 140 140 140 140 140 140 140 140 134 134 134 134 134 134 134 134 134 134 134 134 134 134 134 134 134 134 134 134 134 134 134 134 134 134 134 134 137 137 137 137 140 140 140 140 129 129 129 129 140 140 140 140 140 140 140 140 134 134 134 134 135 135 135 135 130 130 130 130 130 130 130 130 133 133 133 133 133 133 133 133 130 130 130 130 130 130 130 130 130 130 130 130 131 131 131 131 130 130 130 130 130 130 130 130 133 133 133 133 131 131 131 131 135 135 135 135 136 136 136 136 136 136 136 136 131 131 131 131 131 131 131 131 135 135 135 135 129 129 129 129 129 129 129 129 129 129 129 129 129 129 129 129 129 129 129 129 136 136 136 136 132 132 132 132 131 131 131 131 129 129 129 129 134 134 134 134 141 141 141 141 141 141 141 141 145 145 145 145 145 145 145 145 145 145 145 145 138 138 138 138 137 137 137 137 138 138 138 138 142 142 142 142 143 143 143 143 143 143 143 143 148 148 148 148 144 144 144 144 153 153 153 153 150 150 150 150 154 154 154 154 158 158 158 158 153
129 129 129 129 129 129 129 129 136 136 136 136 130 130 130 130 129 129 129 129 137 137 137 137 136 136 136 136 130 130 130 130 127 127 127 127 128 128 128 128 130 130 130 130 128 128 128 128 128 128 128 128 127 127 127 127 124 124 124 124 124 124 124 124 127 127 127 127 133 133 133 133 130 130 130 130 130 130 130 130 131 131 131 131 131 131 131 131 131 131 131 131 131 131 131 131 132 132 132 132 132 132 132 132 136 136 136 136 136 136 136 136 131 131 131 131 130 130 130 130 130 130 130 130 131 131 131 131 131 131 131 131 131 131 131 131 131 131 131 131 130 130 130 130 128 128 128 128 127 127 127 127 127 127 127 127 128 128 128 128 130 130 130 130 131 131 131 131 130 130 130 130 128 128 128 128 133 133 133 133 127 127 127 127 127 127 127 127 127 127 127 127 124 124 124 124 124 124 124 124 124 124 124 124 126 126 126 126 126 126 126 126 121 121 121 121 121 121 121 121 121 121 121 121 123 123 123 123 120 120 120 120 121 121 121 121 117 117 117 117 122 122 122 122 125 125 125 125 125 125 125 125 125 125 125 125 124 124 124 124 121 121 121 121 122 122 122 122 122 122 122 122 123 123 123 123 126 126 126 126 127 127 127 127 128 128 128 128 130 130 130 130 132 132 132 132 135 135 135 135 135 135 135 135 129 129 129 129 137 137 137 137 137 137 137 137 137 137 137 137 137 137 137 137 137 137 137 137 135 135 135 135 131 131 131 131 129 129 129 129 137 137 137 137 137 137 137 137 137 137 137 137 129 129 129 129 140 140 140 140 140 140 140 140 140 140 140 140 134 134 134 134 134 134 134 134 134 134 134 134 134 134 134 134 134 134 134 134 134 134 134 134 134 134 134 134 137 137 137 137 140 140 140 140 129 129 129 129 140 140 140 140 140 140 140 140 134 134 134 134 135 135 135 135 130 130 130 130 130 130 130 130 133 133 133 133 133 133 133 133 130 130 130 130 130 130 130 130 130 130 130 130 131 131 131 131 130 130 130 130 130 130 130 130 133 133 133 133 131 131 131 131 135 135 135 135 136 136 136 136 136 136 136 136 131 131 131 131 131 131 131 131 135 135 135 135 129 129 129 129 129 129 129 129 129 129 129 129 129 129 129 129 129 129 129 129 136 136 136 136 132 132 132 132 131 131 131 131 129 129 129 129 134 134 134 134 141 141 141 141 141 141 141 141 145 145 145 145 145 145 145 145 145 145 145 145 138 138 138 138 137 137 137 137 138 138 138 138 142 142 142 142 143 143 143 143 143 143 143 143 148 148 148 148 144 144 144 144 153 153 153 153 150 150 150 150 154 154 154 154 158 158 158 158 153
140 140 140 140 137 137 137 137 136 136 136 136 132 132 132 132 129 129 129 129 140 140 140 140 137 137 137 137 131 131 131 131 128 128 128 128 128 128 128 128 130 130 130 130 130 130 130 130 133 133 133 133 133 133 133 133 127 127 127 127 127 127 127 127 127 127 127 127 128 128 128 128 130 130 130 130 130 130 130 130 131 131 131 131 132 132 132 132 131 131 131 131 135 135 135 135 129 129 129 129 129 129 129 129 137 137 137 137 140 140 140 140 135 135 135 135 132 132 132 132 131 131 131 131 131 131 131 131 135 135 135 135 135 135 135 135 132 132 132 132 132 132 132 132 131 131 131 131 128 128 128 128 128 128 128 128 133 133 133 133 130 130 130 130 132 132 132 132 130 130 130 130 130 130 130 130 130 130 130 130 128 128 128 128 128 128 128 128 130 130 130 130 133 133 133 133 128 128 128 128 127 127 127 127 125 125 125 125 124 124 124 124 124 124 124 124 127 127 127 127 125 125 125 125 120 120 120 120 123 123 123 123 125 125 125 125 120 120 120 120 117 117 117 117 126 126 126 126 124 124 124 124 124 124 124 124 124 124 124 124 125 125 125 125 121 121 121 121 120 120 120 120 122 122 122 122 121 121 121 121 125 125 125 125 127 127 127 127 128 128 128 128 133 133 133 133 128 128 128 128 130 130 130 130 136 136 136 136 129 129 129 129 137 137 137 137 137 137 137 137 137 137 137 137 137 137 137 137 137 137 137 137 136 136 136 136 140 140 140 140 140 140 140 140 140 140 140 140 140 140 140 140 140 140 140 140 140 140 140 140 140 140 140 140 134 134 134 134 134 134 134 134 134 134 134 134 138 138 138 138 138 138 138 138 138 138 138 138 138 138 138 138 134 134 134 134 140 140 140 140 140 140 140 140 138 138 138 138 138 138 138 138 138 138 138 138 137 137 137 137 131 131 131 131 130 130 130 130 130 130 130 130 130 130 130 130 130 130 130 130 131 131 131 131 131 131 131 131 131 131 131 131 131 131 131 131 131 131 131 131 130 130 130 130 130 130 130 130 132 132 132 132 136 136 136 136 137 137 137 137 137 137 137 137 132 132 132 132 132 132 132 132 135 135 135 135 137 137 137 137 134 134 134 134 140 140 140 140 140 140 140 140 140 140 140 140 137 137 137 137 136 136 136 136 131 131 131 131 129 129 129 129 138 138 138 138 139 139 139 139 145 145 145 145 143 143 143 143 144 144 144 144 143 143 143 143 145 145 145 145 140 140 140 140 141 141 141 141 142 142 142 142 143 143 143 143 148 148 148 148 147 147 147 147 146 146 146 146 152 152 152 152 156 156 156 156 154 154 154 154 150 150 150 150 146
140 140 140 140 137 137 137 137 136 136 136 136 132 132 132 132 129 129 129 129 140 140 140 140 137 137 137 137 131 131 131 131 128 128 128 128 128 128 128 128 130 130 130 130 130 130 130 130 133 133 133 133 133 133 133 133 127 127 127 127 127 127 127 127 127 127 127 127 128 128 128 128 130 130 130 130 130 130 130 130 131 131 131 131 132 132 132 132 131 131 131 131 135 135 135 135 129 129 129 129 129 129 129 129 137 137 137 137 140 140 140 140 135 135 135 135 132 132 132 132 131 131 131 131 131 131 131 131 135 135 135 135 135 135 135 135 132 132 132 132 132 132 132 132 131 131 131 131 128 128 128 128 128 128 128 128 133 133 133 133 130 130 130 130 132 132 132 132 130 130 130 130 130 130 130 130 130 130 130 130 128 128 128 128 128 128 128 128 130 130 130 130 133 133 133 133 128 128 128 128 127 127 127 127 125 125 125 125 124 124 124 124 124 124 124 124 127 127 127 127 125 125 125 125 120 120 120 120 123 123 123 123 125 125 125 125 120 120 120 120 117 117 117 117 126 126 126 126 124 124 124 124 124 124 124 124 124 124 124 124 125 125 125 125 121 121 121 121 120 120 120 120 122 122 122 122 121 121 121 121 125 125 125 125 127 127 127 127 128 128 128 128 133 133 133 133 128 128 128 128 130 130 130 130 136 136 136 136 129 129 129 129 137 137 137 137 137 137 137 137 137 137 137 137 137 137 137 137 137 137 137 137 136 136 136 136 140 140 140 140 140 140 140 140 140 140 140 140 140 140 140 140 140 140 140 140 140 140 140 140 140 140 140 140 134 134 134 134 134 134 134 134 134 134 134 134 138 138 138 138 138 138 138 138 138 138 138 138 138 138 138 138 134 134 134 134 140 140 140 140 140 140 140 140 138 138 138 138 138 138 138 138 138 138 138 138 137 137 137 137 131 131 131 131 130 130 130 130 130 130 130 130 130 130 130 130 130 130 130 130 131 131 131 131 131 131 131 131 131 131 131 131 131 131 131 131 131 131 131 131 130 130 130 130 130 130 130 130 132 132 132 132 136 136 136 136 137 137 137 137 137 137 137 137 132 132 132 132 132 132 132 132 135 135 135 135 137 137 137 137 134 134 134 134 140 140 140 140 140 140 140 140 140 140 140 140 137 137 137 137 136 136 136 136 131 131 131 131 129 129 129 129 138 138 138 138 139 139 139 139 145 145 145 145 143 143 143 143 144 144 144 144 143 143 143 143 145 145 145 145 140 140 140 140 141 141 141 141 142 142 142 142 143 143 143 143 148 148 148 148 147 147 147 147 146 146 146 146 152 152 152 152 156 156 156 156 154 154 154 154 150 150 150 150 146
140 140 140 140 137 137 137 137 136 136 136 136 132 132 132 132 129 129 129 129 140 140 140 140 137 137 137 137 131 131 131 131 128 128 128 128 128 128 128 128 130 130 130 130 130 130 130 130 133 133 133 133 133 133 133 133 127 127 127 127 127 127 127 127 127 127 127 127 128 128 128 128 130 130 130 130 130 130 130 130 131 131 131 131 132 132 132 132 131 131 131 131 135 135 135 135 129 129 129 129 129 129 129 129 137 137 137 137 140 140 140 140 135 135 135 135 132 132 132 132 131 131 131 131 131 131 131 131 135 135 135 135 135 135 135 135 132 132 132 132 132 132 132 132 131 131 131 131 128 128 128 128 128 128 128 128 133 133 133 133 130 130 130 130 132 132 132 132 130 130 130 130 130 130 130 130 130 130 130 130 128 128 128 128 128 128 128 128 130 130 130 130 133 133 133 133 128 128 128 128 127 127 127 127 125 125 125 125 124 124 124 124 124 124 124 124 127 127 127 127 125 125 125 125 120 120 120 120 123 123 123 123 125 125 125 125 120 120 120 120 117 117 117 117 126 126 126 126 124 124 124 124 124 124 124 124 124 124 124 124 125 125 125 125 121 121 121 121 120 120 120 120 122 122 122 122 121 121 121 121 125 125 125 125 127 127 127 127 128 128 128 128 133 133 133 133 128 128 128 128 130 130 130 130 136 136 136 136 129 129 129 129 137 137 137 137 137 137 137 137 137 137 137 137 137 137 137 137 137 137 137 137 136 136 136 136 140 140 140 140 140 140 140 140 140 140 140 140 140 140 140 140 140 140 140 140 140 140 140 140 140 140 140 140 134 134 134 134 134 134 134 134 134 134 134 134 138 138 138 138 138 138 138 138 138 138 138 138 138 138 138 138 134 134 134 134 140 140 140 140 140 140 140 140 138 138 138 138 138 138 138 138 138 138 138 138 137 137 137 137 131 131 131 131 130 130 130 130 130 130 130 130 130 130 130 130 130 130 130 130 131 131 131 131 131 131 131 131 131 131 131 131 131 131 131 131 131 131 131 131 130 130 130 130 130 130 130 130 132 132 132 132 136 136 136 136 137 137 137 137 137 137 137 137 132 132 132 132 132 132 132 132 135 135 135 135 137 137 137 137 134 134 134 134 140 140 140 140 140 140 140 140 140 140 140 140 137 137 137 137 136 136 136 136 131 131 131 131 129 129 129 129 138 138 138 138 139 139 139 139 145 145 145 145 143 143 143 143 144 144 144 144 143 143 143 143 145 145 145 145 140 140 140 140 141 141 141 141 142 142 142 142 143 143 143 143 148 148 148 148 147 147 147 147 146 146 146 146 152 152 152 152 156 156 156 156 154 154 154 154 150 150 150 150 146
140 140 140 140 137 137 137 137 136 136 136 136 132 132 132 132 129 129 129 129 140 140 140 140 137 137 137 137 131 131 131 131 128 128 128 128 128 128 128 128 130 130 130 130 130 130 130 130 133 133 133 133 133 133 133 133 127 127 127 127 127 127 127 127 127 127 127 127 128 128 128 128 130 130 130 130 130 130 130 130 131 131 131 131 132 132 132 132 131 131 131 131 135 135 135 135 129 129 129 129 129 129 129 129 137 137 137 137 140 140 140 140 135 135 135 135 132 132 132 132 131 131 131 131 131 131 131 131 135 135 135 135 135 135 135 135 132 132 132 132 132 132 132 132 131 131 131 131 128 128 128 128 128 128 128 128 133 133 133 133 130 130 130 130 132 132 132 132 130 130 130 130 130 130 130 130 130 130 130 130 128 128 128 128 128 128 128 128 130 130 130 130 133 133 133 133 128 128 128 128 127 127 127 127 125 125 125 125 124 124 124 124 124 124 124 124 127 127 127 127 125 125 125 125 120 120 120 120 123 123 123 123 125 125 125 125 120 120 120 120 117 117 117 117 126 126 126 126 124 124 124 124 124 124 124 124 124 124 124 124 125 125 125 125 121 121 121 121 120 120 120 120 122 122 122 122 121 121 121 121 125 125 125 125 127 127 127 127 128 128 128 128 133 133 133 133 128 128 128 128 130 130 130 130 136 136 136 136 129 129 129 129 137 137 137 137 137 137 137 137 137 137 137 137 137 137 137 137 137 137 137 137 136 136 136 136 140 140 140 140 140 140 140 140 140 140 140 140 140 140 140 140 140 140 140 140 140 140 140 140 140 140 140 140 134 134 134 134 134 134 134 134 134 134 134 134 138 138 138 138 138 138 138 138 138 138 138 138 138 138 138 138 134 134 134 134 140 140 140 140 140 140 140 140 138 138 138 138 138 138 138 138 138 138 138 138 137 137 137 137 131 131 131 131 130 130 130 130 130 130 130 130 130 130 130 130 130 130 130 130 131 131 131 131 131 131 131 131 131 131 131 131 131 131 131 131 131 131 131 131 130 130 130 130 130 130 130 130 132 132 132 132 136 136 136 136 137 137 137 137 137 137 137 137 132 132 132 132 132 132 132 132 135 135 135 135 137 137 137 137 134 134 134 134 140 140 140 140 140 140 140 140 140 140 140 140 137 137 137 137 136 136 136 136 131 131 131 131 129 129 129 129 138 138 138 138 139 139 139 139 145 145 145 145 143 143 143 143 144 144 144 144 143 143 143 143 145 145 145 145 140 140 140 140 141 141 141 141 142 142 142 142 143 143 143 143 148 148 148 148 147 147 147 147 146 146 146 146 152 152 152 152 156 156 156 156 154 154 154 154 150 150 150 150 146
140 140 140 140 137 137 137 137 129 129 129 129 132 132 132 132 137 137 137 137 140 140 140 140 140 140 140 140 132 132 132 132 130 130 130 130 128 128 128 128 130 130 130 130 130 130 130 130 131 131 131 131 130 130 130 130 128 128 128 128 133 133 133 133 130 130 130 130 130 130 130 130 130 130 130 130 130 130 130 130 131 131 131 131 132 132 132 132 135 135 135 135 136 136 136 136 129 129 129 129 140 140 140 140 140 140 140 140 140 140 140 140 136 136 136 136 136 136 136 136 132 132 132 132 135 135 135 135 136 136 136 136 136 136 136 136 135 135 135 135 132 132 132 132 131 131 131 131 128 128 128 128 133 133 133 133 131 131 131 131 131 131 131 131 135 135 135 135 132 132 132 132 131 131 131 131 130 130 130 130 130 130 130 130 130 130 130 130 131 131 131 131 131 131 131 131 133 133 133 133 128 128 128 128 127 127 127 127 127 127 127 127 128 128 128 128 127 127 127 127 124 124 124 124 123 123 123 123 126 126 126 126 124 124 124 124 121 121 121 121 122 122 122 122 121 121 121 121 127 127 127 127 127 127 127 127 127 127 127 127 124 124 124 124 124 124 124 124 121 121 121 121 122 122 122 122 120 120 120 120 121 121 121 121 125 125 125 125 127 127 127 127 127 127 127 127 128 128 128 128 128 128 128 128 132 132 132 132 129 129 129 129 137 137 137 137 137 137 137 137 137 137 137 137 137 137 137 137 137 137 137 137 137 137 137 137 140 140 140 140 140 140 140 140 140 140 140 140 140 140 140 140 140 140 140 140 140 140 140 140 134 134 134 134 134 134 134 134 134 134 134 134 134 134 134 134 138 138 138 138 138 138 138 138 138 138 138 138 138 138 138 138 138 138 138 138 134 134 134 134 138 138 138 138 138 138 138 138 138 138 138 138 134 134 134 134 136 136 136 136 135 135 135 135 135 135 135 135 132 132 132 132 131 131 131 131 131 131 131 131 131 131 131 131 135 135 135 135 129 129 129 129 136 136 136 136 132 132 132 132 131 131 131 131 132 132 132 132 132 132 132 132 135 135 135 135 137 137 137 137 140 140 140 140 135 135 135 135 135 135 135 135 129 129 129 129 140 140 140 140 141 141 141 141 141 141 141 141 141 141 141 141 141 141 141 141 138 138 138 138 136 136 136 136 132 132 132 132 136 136 136 136 140 140 140 140 141 141 141 141 145 145 145 145 142 142 142 142 143 143 143 143 144 144 144 144 142 142 142 142 138 138 138 138 145 145 145 145 142 142 142 142 144 144 144 144 146 146 146 146 147 147 147 147 152 152 152 152 146 146 146 146 156 156 156 156 151 151 151 151 146 146 146 146 148
140 140 140 140 137 137 137 137 129 129 129 129 132 132 132 132 137 137 137 137 140 140 140 140 140 140 140 140 132 132 132 132 130 130 130 130 128 128 128 128 130 130 130 130 130 130 130 130 131 131 131 131 130 130 130 130 128 128 128 128 133 133 133 133 130 130 130 130 130 130 130 130 130 130 130 130 130 130 130 130 131 131 131 131 132 132 132 132 135 135 135 135 136 136 136 136 129 129 129 129 140 140 140 140 140 140 140 140 140 140 140 140 136 136 136 136 136 136 136 136 132 132 132 132 135 135 135 135 136 136 136 136 136 136 136 136 135 135 135 135 132 132 132 132 131 131 131 131 128 128 128 128 133 133 133 133 131 131 131 131 131 131 131 131 135 135 135 135 132 132 132 132 131 131 131 131 130 130 130 130 130 130 130 130 130 130 130 130 131 131 131 131 131 131 131 131 133 133 133 133 128 128 128 128 127 127 127 127 127 127 127 127 128 128 128 128 127 127 127 127 124 124 124 124 123 123 123 123 126 126 126 126 124 124 124 124 121 121 121 121 122 122 122 122 121 121 121 121 127 127 127 127 127 127 127 127 127 127 127 127 124 124 124 124 124 124 124 124 121 121 121 121 122 122 122 122 120 120 120 120 121 121 121 121 125 125 125 125 127 127 127 127 127 127 127 127 128 128 128 128 128 128 128 128 132 132 132 132 129 129 129 129 137 137 137 137 137 137 137 137 137 137 137 137 137 137 137 137 137 137 137 137 137 137 137 137 140 140 140 140 140 140 140 140 140 140 140 140 140 140 140 140 140 140 140 140 140 140 140 140 134 134 134 134 134 134 134 134 134 134 134 134 134 134 134 134 138 138 138 138 138 138 138 138 138 138 138 138 138 138 138 138 138 138 138 138 134 134 134 134 138 138 138 138 138 138 138 138 138 138 138 138 134 134 134 134 136 136 136 136 135 135 135 135 135 135 135 135 132 132 132 132 131 131 131 131 131 131 131 131 131 131 131 131 135 135 135 135 129 129 129 129 136 136 136 136 132 132 132 132 131 131 131 131 132 132 132 132 132 132 132 132 135 135 135 135 137 137 137 137 140 140 140 140 135 135 135 135 135 135 135 135 129 129 129 129 140 140 140 140 141 141 141 141 141 141 141 141 141 141 141 141 141 141 141 141 138 138 138 138 136 136 136 136 132 132 132 132 136 136 136 136 140 140 140 140 141 141 141 141 145 145 145 145 142 142 142 142 143 143 143 143 144 144 144 144 142 142 142 142 138 138 138 138 145 145 145 145 142 142 142 142 144 144 144 144 146 146 146 146 147 147 147 147 152 152 152 152 146 146 146 146 156 156 156 156 151 151 151 151 146 146 146 146 148
140 140 140 140 137 137 137 137 129 129 129 129 132 132 132 132 137 137 137 137 140 140 140 140 140 140 140 140 132 132 132 132 130 130 130 130 128 128 128 128 130 130 130 130 130 130 130 130 131 131 131 131 130 130 130 130 128 128 128 128 133 133 133 133 130 130 130 130 130 130 130 130 130 130 130 130 130 130 130 130 131 131 131 131 132 132 132 132 135 135 135 135 136 136 136 136 129 129 129 129 140 140 140 140 140 140 140 140 140 140 140 140 136 136 136 136 136 136 136 136 132 132 132 132 135 135 135 135 136 136 136 136 136 136 136 136 135 135 135 135 132 132 132 132 131 131 131 131 128 128 128 128 133 133 133 133 131 131 131 131 131 131 131 131 135 135 135 135 132 132 132 132 131 131 131 131 130 130 130 130 130 130 130 130 130 130 130 130 131 131 131 131 131 131 131 131 133 133 133 133 128 128 128 128 127 127 127 127 127 127 127 127 128 128 128 128 127 127 127 127 124 124 124 124 123 123 123 123 126 126 126 126 124 124 124 124 121 121 121 121 122 122 122 122 121 121 121 121 127 127 127 127 127 127 127 127 127 127 127 127 124 124 124 124 124 124 124 124 121 121 121 121 122 122 122 122 120 120 120 120 121 121 121 121 125 125 125 125 127 127 127 127 127 127 127 127 128 128 128 128 128 128 128 128 132 132 132 132 129 129 129 129 137 137 137 137 137 137 137 137 137 137 137 137 137 137 137 137 137 137 137 137 137 137 137 137 140 140 140 140 140 140 140 140 140 140 140 140 140 140 140 140 140 140 140 140 140 140 140 140 134 134 134 134 134 134 134 134 134 134 134 134 134 134 134 134 138 138 138 138 138 138 138 138 138 138 138 138 138 138 138 138 138 138 138 138 134 134 134 134 138 138 138 138 138 138 138 138 138 138 138 138 134 134 134 134 136 136 136 136 135 135 135 135 135 135 135 135 132 132 132 132 131 131 131 131 131 131 131 131 131 131 131 131 135 135 135 135 129 129 129 129 136 136 136 136 132 132 132 132 131 131 131 131 132 132 132 132 132 132 132 132 135 135 135 135 137 137 137 137 140 140 140 140 135 135 135 135 135 135 135 135 129 129 129 129 140 140 140 140 141 141 141 141 141 141 141 141 141 141 141 141 141 141 141 141 138 138 138 138 136 136 136 136 132 132 132 132 136 136 136 136 140 140 140 140 141 141 141 141 145 145 145 145 142 142 142 142 143 143 143 143 144 144 144 144 142 142 142 142 138 138 138 138 145 145 145 145 142 142 142 142 144 144 144 144 146 146 146 146 147 147 147 147 152 152 152 152 146 146 146 146 156 156 156 156 151 151 151 151 146 146 146 146 148
140 140 140 140 137 137 137 137 129 129 129 129 132 132 132 132 137 137 137 137 140 140 140 140 140 140 140 140 132 132 132 132 130 130 130 130 128 128 128 128 130 130 130 130 130 130 130 130 131 131 131 131 130 130 130 130 128 128 128 128 133 133 133 133 130 130 130 130 130 130 130 130 130 130 130 130 130 130 130 130 131 131 131 131 132 132 132 132 135 135 135 135 136 136 136 136 129 129 129 129 140 140 140 140 140 140 140 140 140 140 140 140 136 136 136 136 136 136 136 136 132 132 132 132 135 135 135 135 136 136 136 136 136 136 136 136 135 135 135 135 132 132 132 132 131 131 131 131 128 128 128 128 133 133 133 133 131 131 131 131 131 131 131 131 135 135 135 135 132 132 132 132 131 131 131 131 130 130 130 130 130 130 130 130 130 130 130 130 131 131 131 131 131 131 131 131 133 133 133 133 128 128 128 128 127 127 127 127 127 127 127 127 128 128 128 128 127 127 127 127 124 124 124 124 123 123 123 123 126 126 126 126 124 124 124 124 121 121 121 121 122 122 122 122 121 121 121 121 127 127 127 127 127 127 127 127 127 127 127 127 124 124 124 124 124 124 124 124 121 121 121 121 122 122 122 122 120 120 120 120 121 121 121 121 125 125 125 125 127 127 127 127 127 127 127 127 128 128 128 128 128 128 128 128 132 132 132 132 129 129 129 129 137 137 137 137 137 137 137 137 137 137 137 137 137 137 137 137 137 137 137 137 137 137 137 137 140 140 140 140 140 140 140 140 140 140 140 140 140 140 140 140 140 140 140 140 140 140 140 140 134 134 134 134 134 134 134 134 134 134 134 134 134 134 134 134 138 138 138 138 138 138 138 138 138 138 138 138 138 138 138 138 138 138 138 138 134 134 134 134 138 138 138 138 138 138 138 138 138 138 138 138 134 134 134 134 136 136 136 136 135 135 135 135 135 135 135 135 132 132 132 132 131 131 131 131 131 131 131 131 131 131 131 131 135 135 135 135 129 129 129 129 136 136 136 136 132 132 132 132 131 131 131 131 132 132 132 132 132 132 132 132 135 135 135 135 137 137 137 137 140 140 140 140 135 135 135 135 135 135 135 135 129 129 129 129 140 140 140 140 141 141 141 141 141 141 141 141 141 141 141 141 141 141 141 141 138 138 138 138 136 136 136 136 132 132 132 132 136 136 136 136 140 140 140 140 141 141 141 141 145 145 145 145 142 142 142 142 143 143 143 143 144 144 144 144 142 142 142 142 138 138 138 138 145 145 145 145 142 142 142 142 144 144 144 144 146 146 146 146 147 147 147 147 152 152 152 152 146 146 146 146 156 156 156 156 151 151 151 151 146 146 146 146 148
140 140 140 140 140 140 140 140 137 137 137 137 136 136 136 136 137 137 137 137 140 140 140 140 140 140 140 140 135 135 135 135 133 133 133 133 128 128 128 128 130 130 130 130 131 131 131 131 131 131 131 131 133 133 133 133 130 130 130 130 131 131 131 131 131 131 131 131 132 132 132 132 132 132 132 132 131 131 131 131 131 131 131 131 132 132 132 132 136 136 136 136 136 136 136 136 140 140 140 140 145 145 145 145 145 145 145 145 138 138 138 138 140 140 140 140 129 129 129 129 136 136 136 136 136 136 136 136 137 137 137 137 129 129 129 129 136 136 136 136 132 132 132 132 130 130 130 130 127 127 127 127 130 130 130 130 131 131 131 131 132 132 132 132 136 136 136 136 132 132 132 132 131 131 131 131 131 131 131 131 130 130 130 130 131 131 131 131 132 132 132 132 131 131 131 131 130 130 130 130 133 133 133 133 133 133 133 133 133 133 133 133 130 130 130 130 127 127 127 127 124 124 124 124 125 125 125 125 127 127 127 127 127 127 127 127 126 126 126 126 122 122 122 122 120 120 120 120 125 125 125 125 127 127 127 127 127 127 127 127 127 127 127 127 127 127 127 127 125 125 125 125 121 121 121 121 120 120 120 120 123 123 123 123 121 121 121 121 124 124 124 124 128 128 128 128 131 131 131 131 131 131 131 131 131 131 131 131 136 136 136 136 129 129 129 129 137 137 137 137 137 137 137 137 137 137 137 137 137 137 137 137 137 137 137 137 140 140 140 140 140 140 140 140 140 140 140 140 140 140 140 140 140 140 140 140 140 140 140 140 134 134 134 134 134 134 134 134 134 134 134 134 134 134 134 134 134 134 134 134 138 138 138 138 138 138 138 138 138 138 138 138 138 138 138 138 141 141 141 141 141 141 141 141 141 141 141 141 141 141 141 141 134 134 134 134 137 137 137 137 140 140 140 140 137 137 137 137 137 137 137 137 137 137 137 137 136 136 136 136 132 132 132 132 136 136 136 136 140 140 140 140 137 137 137 137 136 136 136 136 135 135 135 135 136 136 136 136 135 135 135 135 135 135 135 135 129 129 129 129 140 140 140 140 136 136 136 136 136 136 136 136 140 140 140 140 139 139 139 139 145 145 145 145 142 142 142 142 145 145 145 145 139 139 139 139 137 137 137 137 136 136 136 136 135 135 135 135 135 135 135 135 129 129 129 129 141 141 141 141 145 145 145 145 142 142 142 142 143 143 143 143 144 144 144 144 142 142 142 142 139 139 139 139 145 145 145 145 144 144 144 144 148 148 148 148 148 148 148 148 153 153 153 153 149 149 149 149 146 146 146 146 150 150 150 150 153 153 153 153 148 148 148 148 147
140 140 140 140 140 140 140 140 137 137 137 137 136 136 136 136 137 137 137 137 140 140 140 140 140 140 140 140 135 135 135 135 133 133 133 133 128 128 128 128 130 130 130 130 131 131 131 131 131 131 131 131 133 133 133 133 130 130 130 130 131 131 131 131 131 131 131 131 132 132 132 132 132 132 132 132 131 131 131 131 131 131 131 131 132 132 132 132 136 136 136 136 136 136 136 136 140 140 140 140 145 145 145 145 145 145 145 145 138 138 138 138 140 140 140 140 129 129 129 129 136 136 136 136 136 136 136 136 137 137 137 137 129 129 129 129 136 136 136 136 132 132 132 132 130 130 130 130 127 127 127 127 130 130 130 130 131 131 131 131 132 132 132 132 136 136 136 136 132 132 132 132 131 131 131 131 131 131 131 131 130 130 130 130 131 131 131 131 132 132 132 132 131 131 131 131 130 130 130 130 133 133 133 133 133 133 133 133 133 133 133 133 130 130 130 130 127 127 127 127 124 124 124 124 125 125 125 125 127 127 127 127 127 127 127 127 126 126 126 126 122 122 122 122 120 120 120 120 125 125 125 125 127 127 127 127 127 127 127 127 127 127 127 127 127 127 127 127 125 125 125 125 121 121 121 121 120 120 120 120 123 123 123 123 121 121 121 121 124 124 124 124 128 128 128 128 131 131 131 131 131 131 131 131 131 131 131 131 136 136 136 136 129 129 129 129 137 137 137 137 137 137 137 137 137 137 137 137 137 137 137 137 137 137 137 137 140 140 140 140 140 140 140 140 140 140 140 140 140 140 140 140 140 140 140 140 140 140 140 140 134 134 134 134 134 134 134 134 134 134 134 134 134 134 134 134 134 134 134 134 138 138 138 138 138 138 138 138 138 138 138 138 138 138 138 138 141 141 141 141 141 141 141 141 141 141 141 141 141 141 141 141 134 134 134 134 137 137 137 137 140 140 140 140 137 137 137 137 137 137 137 137 137 137 137 137 136 136 136 136 132 132 132 132 136 136 136 136 140 140 140 140 137 137 137 137 136 136 136 136 135 135 135 135 136 136 136 136 135 135 135 135 135 135 135 135 129 129 129 129 140 140 140 140 136 136 136 136 136 136 136 136 140 140 140 140 139 139 139 139 145 145 145 145 142 142 142 142 145 145 145 145 139 139 139 139 137 137 137 137 136 136 136 136 135 135 135 135 135 135 135 135 129 129 129 129 141 141 141 141 145 145 145 145 142 142 142 142 143 143 143 143 144 144 144 144 142 142 142 142 139 139 139 139 145 145 145 145 144 144 144 144 148 148 148 148 148 148 148 148 153 153 153 153 149 149 149 149 146 146 146 146 150 150 150 150 153 153 153 153 148 148 148 148 147
140 140 140 140 140 140 140 140 137 137 137 137 136 136 136 136 137 137 137 137 140 140 140 140 140 140 140 140 135 135 135 135 133 133 133 133 128 128 128 128 130 130 130 130 131 131 131 131 131 131 131 131 133 133 133 133 130 130 130 130 131 131 131 131 131 131 131 131 132 132 132 132 132 132 132 132 131 131 131 131 131 131 131 131 132 132 132 132 136 136 136 136 136 136 136 136 140 140 140 140 145 145 145 145 145 145 145 145 138 138 138 138 140 140 140 140 129 129 129 129 136 136 136 136 136 136 136 136 137 137 137 137 129 129 129 129 136 136 136 136 132 132 132 132 130 130 130 130 127 127 127 127 130 130 130 130 131 131 131 131 132 132 132 132 136 136 136 136 132 132 132 132 131 131 131 131 131 131 131 131 130 130 130 130 131 131 131 131 132 132 132 132 131 131 131 131 130 130 130 130 133 133 133 133 133 133 133 133 133 133 133 133 130 130 130 130 127 127 127 127 124 124 124 124 125 125 125 125 127 127 127 127 127 127 127 127 126 126 126 126 122 122 122 122 120 120 120 120 125 125 125 125 127 127 127 127 127 127 127 127 127 127 127 127 127 127 127 127 125 125 125 125 121 121 121 121 120 120 120 120 123 123 123 123 121 121 121 121 124 124 124 124 128 128 128 128 131 131 131 131 131 131 131 131 131 131 131 131 136 136 136 136 129 129 129 129 137 137 137 137 137 137 137 137 137 137 137 137 137 137 137 137 137 137 137 137 140 140 140 140 140 140 140 140 140 140 140 140 140 140 140 140 140 140 140 140 140 140 140 140 134 134 134 134 134 134 134 134 134 134 134 134 134 134 134 134 134 134 134 134 138 138 138 138 138 138 138 138 138 138 138 138 138 138 138 138 141 141 141 141 141 141 141 141 141 141 141 141 141 141 141 141 134 134 134 134 137 137 137 137 140 140 140 140 137 137 137 137 137 137 137 137 137 137 137 137 136 136 136 136 132 132 132 132 136 136 136 136 140 140 140 140 137 137 137 137 136 136 136 136 135 135 135 135 136 136 136 136 135 135 135 135 135 135 135 135 129 129 129 129 140 140 140 140 136 136 136 136 136 136 136 136 140 140 140 140 139 139 139 139 145 145 145 145 142 142 142 142 145 145 145 145 139 139 139 139 137 137 137 137 136 136 136 136 135 135 135 135 135 135 135 135 129 129 129 129 141 141 141 141 145 145 145 145 142 142 142 142 143 143 143 143 144 144 144 144 142 142 142 142 139 139 139 139 145 145 145 145 144 144 144 144 148 148 148 148 148 148 148 148 153 153 153 153 149 149 149 149 146 146 146 146 150 150 150 150 153 153 153 153 148 148 148 148 147
140 140 140 140 140 140 140 140 137 137 137 137 136 136 136 136 137 137 137 137 140 140 140 140 140 140 140 140 135 135 135 135 133 133 133 133 128 128 128 128 130 130 130 130 131 131 131 131 131 131 131 131 133 133 133 133 130 130 130 130 131 131 131 131 131 131 131 131 132 132 132 132 132 132 132 132 131 131 131 131 131 131 131 131 132 132 132 132 136 136 136 136 136 136 136 136 140 140 140 140 145 145 145 145 145 145 145 145 138 138 138 138 140 140 140 140 129 129 129 129 136 136 136 136 136 136 136 136 137 137 137 137 129 129 129 129 136 136 136 136 132 132 132 132 130 130 130 130 127 127 127 127 130 130 130 130 131 131 131 131 132 132 132 132 136 136 136 136 132 132 132 132 131 131 131 131 131 131 131 131 130 130 130 130 131 131 131 131 132 132 132 132 131 131 131 131 130 130 130 130 133 133 133 133 133 133 133 133 133 133 133 133 130 130 130 130 127 127 127 127 124 124 124 124 125 125 125 125 127 127 127 127 127 127 127 127 126 126 126 126 122 122 122 122 120 120 120 120 125 125 125 125 127 127 127 127 127 127 127 127 127 127 127 127 127 127 127 127 125 125 125 125 121 121 121 121 120 120 120 120 123 123 123 123 121 121 121 121 124 124 124 124 128 128 128 128 131 131 131 131 131 131 131 131 131 131 131 131 136 136 136 136 129 129 129 129 137 137 137 137 137 137 137 137 137 137 137 137 137 137 137 137 137 137 137 137 140 140 140 140 140 140 140 140 140 140 140 140 140 140 140 140 140 140 140 140 140 140 140 140 134 134 134 134 134 134 134 134 134 134 134 134 134 134 134 134 134 134 134 134 138 138 138 138 138 138 138 138 138 138 138 138 138 138 138 138 141 141 141 141 141 141 141 141 141 141 141 141 141 141 141 141 134 134 134 134 137 137 137 137 140 140 140 140 137 137 137 137 137 137 137 137 137 137 137 137 136 136 136 136 132 132 132 132 136 136 136 136 140 140 140 140 137 137 137 137 136 136 136 136 135 135 135 135 136 136 136 136 135 135 135 135 135 135 135 135 129 129 129 129 140 140 140 140 136 136 136 136 136 136 136 136 140 140 140 140 139 139 139 139 145 145 145 145 142 142 142 142 145 145 145 145 139 139 139 139 137 137 137 137 136 136 136 136 135 135 135 135 135 135 135 135 129 129 129 129 141 141 141 141 145 145 145 145 142 142 142 142 143 143 143 143 144 144 144 144 142 142 142 142 139 139 139 139 145 145 145 145 144 144 144 144 148 148 148 148 148 148 148 148 153 153 153 153 149 149 149 149 146 146 146 146 150 150 150 150 153 153 153 153 148 148 148 148 147
134 134 134 134 140 140 140 140 140 140 140 140 129 129 129 129 137 137 137 137 140 140 140 140 140 140 140 140 135 135 135 135 133 133 133 133 130 130 130 130 131 131 131 131 132 132 132 132 131 131 131 131 130 130 130 130 131 131 131 131 135 135 135 135 136 136 136 136 136 136 136 136 132 132 132 132 131 131 131 131 135 135 135 135 136 136 136 136 136 136 136 136 129 129 129 129 140 140 140 140 142 142 142 142 144 144 144 144 143 143 143 143 138 138 138 138 140 140 140 140 129 129 129 129 129 129 129 129 137 137 137 137 129 129 129 129 136 136 136 136 132 132 132 132 131 131 131 131 133 133 133 133 130 130 130 130 131 131 131 131 135 135 135 135 136 136 136 136 135 135 135 135 132 132 132 132 131 131 131 131 131 131 131 131 132 132 132 132 135 135 135 135 132 132 132 132 131 131 131 131 130 130 130 130 131 131 131 131 131 131 131 131 130 130 130 130 128 128 128 128 124 124 124 124 124 124 124 124 128 128 128 128 128 128 128 128 124 124 124 124 121 121 121 121 122 122 122 122 121 121 121 121 124 124 124 124 127 127 127 127 127 127 127 127 127 127 127 127 127 127 127 127 125 125 125 125 121 121 121 121 123 123 123 123 121 121 121 121 126 126 126 126 127 127 127 127 133 133 133 133 131 131 131 131 132 132 132 132 136 136 136 136 129 129 129 129 137 137 137 137 137 137 137 137 137 137 137 137 137 137 137 137 137 137 137 137 140 140 140 140 140 140 140 140 140 140 140 140 140 140 140 140 140 140 140 140 140 140 140 140 140 140 140 140 140 140 140 140 134 134 134 134 134 134 134 134 134 134 134 134 134 134 134 134 134 134 134 134 138 138 138 138 138 138 138 138 138 138 138 138 141 141 141 141 141 141 141 141 141 141 141 141 138 138 138 138 138 138 138 138 138 138 138 138 134 134 134 134 134 134 134 134 140 140 140 140 129 129 129 129 135 135 135 135 137 137 137 137 134 134 134 134 140 140 140 140 137 137 137 137 140 140 140 140 137 137 137 137 129 129 129 129 136 136 136 136 129 129 129 129 134 134 134 134 129 129 129 129 137 137 137 137 139 139 139 139 145 145 145 145 145 145 145 145 142 142 142 142 142 142 142 142 139 139 139 139 140 140 140 140 137 137 137 137 129 129 129 129 136 136 136 136 136 136 136 136 134 134 134 134 139 139 139 139 141 141 141 141 142 142 142 142 143 143 143 143 142 142 142 142 142 142 142 142 143 143 143 143 148 148 148 148 148 148 148 148 148 148 148 148 149 149 149 149 148 148 148 148 147 147 147 147 149 149 149 149 148 148 148 148 148 148 148 148 146
134 134 134 134 140 140 140 140 140 140 140 140 129 129 129 129 137 137 137 137 140 140 140 140 140 140 140 140 135 135 135 135 133 133 133 133 130 130 130 130 131 131 131 131 132 132 132 132 131 131 131 131 130 130 130 130 131 131 131 131 135 135 135 135 136 136 136 136 136 136 136 136 132 132 132 132 131 131 131 131 135 135 135 135 136 136 136 136 136 136 136 136 129 129 129 129 140 140 140 140 142 142 142 142 144 144 144 144 143 143 143 143 138 138 138 138 140 140 140 140 129 129 129 129 129 129 129 129 137 137 137 137 129 129 129 129 136 136 136 136 132 132 132 132 131 131 131 131 133 133 133 133 130 130 130 130 131 131 131 131 135 135 135 135 136 136 136 136 135 135 135 135 132 132 132 132 131 131 131 131 131 131 131 131 132 132 132 132 135 135 135 135 132 132 132 132 131 131 131 131 130 130 130 130 131 131 131 131 131 131 131 131 130 130 130 130 128 128 128 128 124 124 124 124 124 124 124 124 128 128 128 128 128 128 128 128 124 124 124 124 121 121 121 121 122 122 122 122 121 121 121 121 124 124 124 124 127 127 127 127 127 127 127 127 127 127 127 127 127 127 127 127 125 125 125 125 121 121 121 121 123 123 123 123 121 121 121 121 126 126 126 126 127 127 127 127 133 133 133 133 131 131 131 131 132 132 132 132 136 136 136 136 129 129 129 129 137 137 137 137 137 137 137 137 137 137 137 137 137 137 137 137 137 137 137 137 140 140 140 140 140 140 140 140 140 140 140 140 140 140 140 140 140 140 140 140 140 140 140 140 140 140 140 140 140 140 140 140 134 134 134 134 134 134 134 134 134 134 134 134 134 134 134 134 134 134 134 134 138 138 138 138 138 138 138 138 138 138 138 138 141 141 141 141 141 141 141 141 141 141 141 141 138 138 138 138 138 138 138 138 138 138 138 138 134 134 134 134 134 134 134 134 140 140 140 140 129 129 129 129 135 135 135 135 137 137 137 137 134 134 134 134 140 140 140 140 137 137 137 137 140 140 140 140 137 137 137 137 129 129 129 129 136 136 136 136 129 129 129 129 134 134 134 134 129 129 129 129 137 137 137 137 139 139 139 139 145 145 145 145 145 145 145 145 142 142 142 142 142 142 142 142 139 139 139 139 140 140 140 140 137 137 137 137 129 129 129 129 136 136 136 136 136 136 136 136 134 134 134 134 139 139 139 139 141 141 141 141 142 142 142 142 143 143 143 143 142 142 142 142 142 142 142 142 143 143 143 143 148 148 148 148 148 148 148 148 148 148 148 148 149 149 149 149 148 148 148 148 147 147 147 147 149 149 149 149 148 148 148 148 148 148 148 148 146
134 134 134 134 140 140 140 140 140 140 140 140 129 129 129 129 137 137 137 137 140 140 140 140 140 140 140 140 135 135 135 135 133 133 133 133 130 130 130 130 131 131 131 131 132 132 132 132 131 131 131 131 130 130 130 130 131 131 131 131 135 135 135 135 136 136 136 136 136 136 136 136 132 132 132 132 131 131 131 131 135 135 135 135 136 136 136 136 136 136 136 136 129 129 129 129 140 140 140 140 142 142 142 142 144 144 144 144 143 143 143 143 138 138 138 138 140 140 140 140 129 129 129 129 129 129 129 129 137 137 137 137 129 129 129 129 136 136 136 136 132 132 132 132 131 131 131 131 133 133 133 133 130 130 130 130 131 131 131 131 135 135 135 135 136 136 136 136 135 135 135 135 132 132 132 132 131 131 131 131 131 131 131 131 132 132 132 132 135 135 135 135 132 132 132 132 131 131 131 131 130 130 130 130 131 131 131 131 131 131 131 131 130 130 130 130 128 128 128 128 124 124 124 124 124 124 124 124 128 128 128 128 128 128 128 128 124 124 124 124 121 121 121 121 122 122 122 122 121 121 121 121 124 124 124 124 127 127 127 127 127 127 127 127 127 127 127 127 127 127 127 127 125 125 125 125 121 121 121 121 123 123 123 123 121 121 121 121 126 126 126 126 127 127 127 127 133 133 133 133 131 131 131 131 132 132 132 132 136 136 136 136 129 129 129 129 137 137 137 137 137 137 137 137 137 137 137 137 137 137 137 137 137 137 137 137 140 140 140 140 140 140 140 140 140 140 140 140 140 140 140 140 140 140 140 140 140 140 140 140 140 140 140 140 140 140 140 140 134 134 134 134 134 134 134 134 134 134 134 134 134 134 134 134 134 134 134 134 138 138 138 138 138 138 138 138 138 138 138 138 141 141 141 141 141 141 141 141 141 141 141 141 138 138 138 138 138 138 138 138 138 138 138 138 134 134 134 134 134 134 134 134 140 140 140 140 129 129 129 129 135 135 135 135 137 137 137 137 134 134 134 134 140 140 140 140 137 137 137 137 140 140 140 140 137 137 137 137 129 129 129 129 136 136 136 136 129 129 129 129 134 134 134 134 129 129 129 129 137 137 137 137 139 139 139 139 145 145 145 145 145 145 145 145 142 142 142 142 142 142 142 142 139 139 139 139 140 140 140 140 137 137 137 137 129 129 129 129 136 136 136 136 136 136 136 136 134 134 134 134 139 139 139 139 141 141 141 141 142 142 142 142 143 143 143 143 142 142 142 142 142 142 142 142 143 143 143 143 148 148 148 148 148 148 148 148 148 148 148 148 149 149 149 149 148 148 148 148 147 147 147 147 149 149 149 149 148 148 148 148 148 148 148 148 146
134 134 134 134 140 140 140 140 140 140 140 140 129 129 129 129 137 137 137 137 140 140 140 140 140 140 140 140 135 135 135 135 133 133 133 133 130 130 130 130 131 131 131 131 132 132 132 132 131 131 131 131 130 130 130 130 131 131 131 131 135 135 135 135 136 136 136 136 136 136 136 136 132 132 132 132 131 131 131 131 135 135 135 135 136 136 136 136 136 136 136 136 129 129 129 129 140 140 140 140 142 142 142 142 144 144 144 144 143 143 143 143 138 138 138 138 140 140 140 140 129 129 129 129 129 129 129 129 137 137 137 137 129 129 129 129 136 136 136 136 132 132 132 132 131 131 131 131 133 133 133 133 130 130 130 130 131 131 131 131 135 135 135 135 136 136 136 136 135 135 135 135 132 132 132 132 131 131 131 131 131 131 131 131 132 132 132 132 135 135 135 135 132 132 132 132 131 131 131 131 130 130 130 130 131 131 131 131 131 131 131 131 130 130 130 130 128 128 128 128 124 124 124 124 124 124 124 124 128 128 128 128 128 128 128 128 124 124 124 124 121 121 121 121 122 122 122 122 121 121 121 121 124 124 124 124 127 127 127 127 127 127 127 127 127 127 127 127 127 127 127 127 125 125 125 125 121 121 121 121 123 123 123 123 121 121 121 121 126 126 126 126 127 127 127 127 133 133 133 133 131 131 131 131 132 132 132 132 136 136 136 136 129 129 129 129 137 137 137 137 137 137 137 137 137 137 137 137 137 137 137 137 137 137 137 137 140 140 140 140 140 140 140 140 140 140 140 140 140 140 140 140 140 140 140 140 140 140 140 140 140 140 140 140 140 140 140 140 134 134 134 134 134 134 134 134 134 134 134 134 134 134 134 134 134 134 134 134 138 138 138 138 138 138 138 138 138 138 138 138 141 141 141 141 141 141 141 141 141 141 141 141 138 138 138 138 138 138 138 138 138 138 138 138 134 134 134 134 134 134 134 134 140 140 140 140 129 129 129 129 135 135 135 135 137 137 137 137 134 134 134 134 140 140 140 140 137 137 137 137 140 140 140 140 137 137 137 137 129 129 129 129 136 136 136 136 129 129 129 129 134 134 134 134 129 129 129 129 137 137 137 137 139 139 139 139 145 145 145 145 145 145 145 145 142 142 142 142 142 142 142 142 139 139 139 139 140 140 140 140 137 137 137 137 129 129 129 129 136 136 136 136 136 136 136 136 134 134 134 134 139 139 139 139 141 141 141 141 142 142 142 142 143 143 143 143 142 142 142 142 142 142 142 142 143 143 143 143 148 148 148 148 148 148 148 148 148 148 148 148 149 149 149 149 148 148 148 148 147 147 147 147 149 149 149 149 148 148 148 148 148 148 148 148 146
138 138 138 138 134 134 134 134 140 140 140 140 129 129 129 129 137 137 137 137 140 140 140 140 140 140 140 140 132 132 132 132 130 130 130 130 130 130 130 130 135 135 135 135 135 135 135 135 132 132 132 132 130 130 130 130 131 131 131 131 135 135 135 135 129 129 129 129 137 137 137 137 135 135 135 135 135 135 135 135 129 129 129 129 140 140 140 140 140 140 140 140 137 137 137 137 140 140 140 140 141 141 141 141 144 144 144 144 142 142 142 142 138 138 138 138 140 140 140 140 137 137 137 137 137 137 137 137 137 137 137 137 136 136 136 136 135 135 135 135 131 131 131 131 130 130 130 130 130 130 130 130 131 131 131 131 131 131 131 131 135 135 135 135 129 129 129 129 129 129 129 129 135 135 135 135 132 132 132 132 135 135 135 135 136 136 136 136 136 136 136 136 135 135 135 135 132 132 132 132 131 131 131 131 132 132 132 132 132 132 132 132 131 131 131 131 130 130 130 130 127 127 127 127 127 127 127 127 128 128 128 128 130 130 130 130 127 127 127 127 125 125 125 125 126 126 126 126 120 120 120 120 120 120 120 120 125 125 125 125 124 124 124 124 127 127 127 127 128 128 128 128 124 124 124 124 125 125 125 125 121 121 121 121 123 123 123 123 121 121 121 121 124 124 124 124 127 127 127 127 128 128 128 128 131 131 131 131 135 135 135 135 129 129 129 129 137 137 137 137 137 137 137 137 137 137 137 137 137 137 137 137 140 140 140 140 140 140 140 140 140 140 140 140 140 140 140 140 140 140 140 140 140 140 140 140 140 140 140 140 140 140 140 140 140 140 140 140 140 140 140 140 140 140 140 140 140 140 140 140 140 140 140 140 134 134 134 134 134 134 134 134 138 138 138 138 138 138 138 138 141 141 141 141 141 141 141 141 141 141 141 141 141 141 141 141 141 141 141 141 139 139 139 139 141 141 141 141 141 141 141 141 134 134 134 134 129 129 129 129 137 137 137 137 140 140 140 140 138 138 138 138 134 134 134 134 140 140 140 140 134 134 134 134 134 134 134 134 140 140 140 140 140 140 140 140 140 140 140 140 141 141 141 141 137 137 137 137 140 140 140 140 138 138 138 138 141 141 141 141 145 145 145 145 142 142 142 142 143 143 143 143 139 139 139 139 134 134 134 134 134 134 134 134 140 140 140 140 140 140 140 140 129 129 129 129 129 129 129 129 137 137 137 137 140 140 140 140 145 145 145 145 145 145 145 145 145 145 145 145 144 144 144 144 144 144 144 144 144 144 144 144 144 144 144 144 148 148 148 148 144 144 144 144 143 143 143 143 148 148 148 148 146 146 146 146 144 144 144 144 148 148 148 148 147
138 138 138 138 134 134 134 134 140 140 140 140 129 129 129 129 137 137 137 137 140 140 140 140 140 140 140 140 132 132 132 132 130 130 130 130 130 130 130 130 135 135 135 135 135 135 135 135 132 132 132 132 130 130 130 130 131 131 131 131 135 135 135 135 129 129 129 129 137 137 137 137 135 135 135 135 135 135 135 135 129 129 129 129 140 140 140 140 140 140 140 140 137 137 137 137 140 140 140 140 141 141 141 141 144 144 144 144 142 142 142 142 138 138 138 138 140 140 140 140 137 137 137 137 137 137 137 137 137 137 137 137 136 136 136 136 135 135 135 135 131 131 131 131 130 130 130 130 130 130 130 130 131 131 131 131 131 131 131 131 135 135 135 135 129 129 129 129 129 129 129 129 135 135 135 135 132 132 132 132 135 135 135 135 136 136 136 136 136 136 136 136 135 135 135 135 132 132 132 132 131 131 131 131 132 132 132 132 132 132 132 132 131 131 131 131 130 130 130 130 127 127 127 127 127 127 127 127 128 128 128 128 130 130 130 130 127 127 127 127 125 125 125 125 126 126 126 126 120 120 120 120 120 120 120 120 125 125 125 125 124 124 124 124 127 127 127 127 128 128 128 128 124 124 124 124 125 125 125 125 121 121 121 121 123 123 123 123 121 121 121 121 124 124 124 124 127 127 127 127 128 128 128 128 131 131 131 131 135 135 135 135 129 129 129 129 137 137 137 137 137 137 137 137 137 137 137 137 137 137 137 137 140 140 140 140 140 140 140 140 140 140 140 140 140 140 140 140 140 140 140 140 140 140 140 140 140 140 140 140 140 140 140 140 140 140 140 140 140 140 140 140 140 140 140 140 140 140 140 140 140 140 140 140 134 134 134 134 134 134 134 134 138 138 138 138 138 138 138 138 141 141 141 141 141 141 141 141 141 141 141 141 141 141 141 141 141 141 141 141 139 139 139 139 141 141 141 141 141 141 141 141 134 134 134 134 129 129 129 129 137 137 137 137 140 140 140 140 138 138 138 138 134 134 134 134 140 140 140 140 134 134 134 134 134 134 134 134 140 140 140 140 140 140 140 140 140 140 140 140 141 141 141 141 137 137 137 137 140 140 140 140 138 138 138 138 141 141 141 141 145 145 145 145 142 142 142 142 143 143 143 143 139 139 139 139 134 134 134 134 134 134 134 134 140 140 140 140 140 140 140 140 129 129 129 129 129 129 129 129 137 137 137 137 140 140 140 140 145 145 145 145 145 145 145 145 145 145 145 145 144 144 144 144 144 144 144 144 144 144 144 144 144 144 144 144 148 148 148 148 144 144 144 144 143 143 143 143 148 148 148 148 146 146 146 146 144 144 144 144 148 148 148 148 147
138 138 138 138 134 134 134 134 140 140 140 140 129 129 129 129 137 137 137 137 140 140 140 140 140 140 140 140 132 132 132 132 130 130 130 130 130 130 130 130 135 135 135 135 135 135 135 135 132 132 132 132 130 130 130 130 131 131 131 131 135 135 135 135 129 129 129 129 137 137 137 137 135 135 135 135 135 135 135 135 129 129 129 129 140 140 140 140 140 140 140 140 137 137 137 137 140 140 140 140 141 141 141 141 144 144 144 144 142 142 142 142 138 138 138 138 140 140 140 140 137 137 137 137 137 137 137 137 137 137 137 137 136 136 136 136 135 135 135 135 131 131 131 131 130 130 130 130 130 130 130 130 131 131 131 131 131 131 131 131 135 135 135 135 129 129 129 129 129 129 129 129 135 135 135 135 132 132 132 132 135 135 135 135 136 136 136 136 136 136 136 136 135 135 135 135 132 132 132 132 131 131 131 131 132 132 132 132 132 132 132 132 131 131 131 131 130 130 130 130 127 127 127 127 127 127 127 127 128 128 128 128 130 130 130 130 127 127 127 127 125 125 125 125 126 126 126 126 120 120 120 120 120 120 120 120 125 125 125 125 124 124 124 124 127 127 127 127 128 128 128 128 124 124 124 124 125 125 125 125 121 121 121 121 123 123 123 123 121 121 121 121 124 124 124 124 127 127 127 127 128 128 128 128 131 131 131 131 135 135 135 135 129 129 129 129 137 137 137 137 137 137 137 137 137 137 137 137 137 137 137 137 140 140 140 140 140 140 140 140 140 140 140 140 140 140 140 140 140 140 140 140 140 140 140 140 140 140 140 140 140 140 140 140 140 140 140 140 140 140 140 140 140 140 140 140 140 140 140 140 140 140 140 140 134 134 134 134 134 134 134 134 138 138 138 138 138 138 138 138 141 141 141 141 141 141 141 141 141 141 141 141 141 141 141 141 141 141 141 141 139 139 139 139 141 141 141 141 141 141 141 141 134 134 134 134 129 129 129 129 137 137 137 137 140 140 140 140 138 138 138 138 134 134 134 134 140 140 140 140 134 134 134 134 134 134 134 134 140 140 140 140 140 140 140 140 140 140 140 140 141 141 141 141 137 137 137 137 140 140 140 140 138 138 138 138 141 141 141 141 145 145 145 145 142 142 142 142 143 143 143 143 139 139 139 139 134 134 134 134 134 134 134 134 140 140 140 140 140 140 140 140 129 129 129 129 129 129 129 129 137 137 137 137 140 140 140 140 145 145 145 145 145 145 145 145 145 145 145 145 144 144 144 144 144 144 144 144 144 144 144 144 144 144 144 144 148 148 148 148 144 144 144 144 143 143 143 143 148 148 148 148 146 146 146 146 144 144 144 144 148 148 148 148 147
138 138 138 138 134 134 134 134 140 140 140 140 129 129 129 129 137 137 137 137 140 140 140 140 140 140 140 140 132 132 132 132 130 130 130 130 130 130 130 130 135 135 135 135 135 135 135 135 132 132 132 132 130 130 130 130 131 131 131 131 135 135 135 135 129 129 129 129 137 137 137 137 135 135 135 135 135 135 135 135 129 129 129 129 140 140 140 140 140 140 140 140 137 137 137 137 140 140 140 140 141 141 141 141 144 144 144 144 142 142 142 142 138 138 138 138 140 140 140 140 137 137 137 137 137 137 137 137 137 137 137 137 136 136 136 136 135 135 135 135 131 131 131 131 130 130 130 130 130 130 130 130 131 131 131 131 131 131 131 131 135 135 135 135 129 129 129 129 129 129 129 129 135 135 135 135 132 132 132 132 135 135 135 135 136 136 136 136 136 136 136 136 135 135 135 135 132 132 132 132 131 131 131 131 132 132 132 132 132 132 132 132 131 131 131 131 130 130 130 130 127 127 127 127 127 127 127 127 128 128 128 128 130 130 130 130 127 127 127 127 125 125 125 125 126 126 126 126 120 120 120 120 120 120 120 120 125 125 125 125 124 124 124 124 127 127 127 127 128 128 128 128 124 124 124 124 125 125 125 125 121 121 121 121 123 123 123 123 121 121 121 121 124 124 124 124 127 127 127 127 128 128 128 128 131 131 131 131 135 135 135 135 129 129 129 129 137 137 137 137 137 137 137 137 137 137 137 137 137 137 137 137 140 140 140 140 140 140 140 140 140 140 140 140 140 140 140 140 140 140 140 140 140 140 140 140 140 140 140 140 140 140 140 140 140 140 140 140 140 140 140 140 140 140 140 140 140 140 140 140 140 140 140 140 134 134 134 134 134 134 134 134 138 138 138 138 138 138 138 138 141 141 141 141 141 141 141 141 141 141 141 141 141 141 141 141 141 141 141 141 139 139 139 139 141 141 141 141 141 141 141 141 134 134 134 134 129 129 129 129 137 137 137 137 140 140 140 140 138 138 138 138 134 134 134 134 140 140 140 140 134 134 134 134 134 134 134 134 140 140 140 140 140 140 140 140 140 140 140 140 141 141 141 141 137 137 137 137 140 140 140 140 138 138 138 138 141 141 141 141 145 145 145 145 142 142 142 142 143 143 143 143 139 139 139 139 134 134 134 134 134 134 134 134 140 140 140 140 140 140 140 140 129 129 129 129 129 129 129 129 137 137 137 137 140 140 140 140 145 145 145 145 145 145 145 145 145 145 145 145 144 144 144 144 144 144 144 144 144 144 144 144 144 144 144 144 148 148 148 148 144 144 144 144 143 143 143 143 148 148 148 148 146 146 146 146 144 144 144 144 148 148 148 148 147
138 138 138 138 134 134 134 134 137 137 137 137 129 129 129 129 140 140 140 140 140 140 140 140 134 134 134 134 129 129 129 129 131 131 131 131 131 131 131 131 136 136 136 136 136 136 136 136 136 136 136 136 132 132 132 132 131 131 131 131 135 135 135 135 129 129 129 129 140 140 140 140 129 129 129 129 136 136 136 136 140 140 140 140 140 140 140 140 134 134 134 134 140 140 140 140 140 140 140 140 140 140 140 140 139 139 139 139 139 139 139 139 134 134 134 134 140 140 140 140 140 140 140 140 137 137 137 137 136 136 136 136 135 135 135 135 131 131 131 131 131 131 131 131 130 130 130 130 131 131 131 131 135 135 135 135 135 135 135 135 129 129 129 129 140 140 140 140 140 140 140 140 136 136 136 136 135 135 135 135 136 136 136 136 129 129 129 129 129 129 129 129 136 136 136 136 132 132 132 132 131 131 131 131 132 132 132 132 135 135 135 135 131 131 131 131 130 130 130 130 128 128 128 128 128 128 128 128 133 133 133 133 130 130 130 130 128 128 128 128 127 127 127 127 124 124 124 124 121 121 121 121 123 123 123 123 125 125 125 125 127 127 127 127 128 128 128 128 128 128 128 128 127 127 127 127 127 127 127 127 125 125 125 125 121 121 121 121 123 123 123 123 126 126 126 126 124 124 124 124 128 128 128 128 133 133 133 133 131 131 131 131 132 132 132 132 135 135 135 135 129 129 129 129 137 137 137 137 137 137 137 137 140 140 140 140 140 140 140 140 140 140 140 140 140 140 140 140 140 140 140 140 140 140 140 140 140 140 140 140 140 140 140 140 140 140 140 140 140 140 140 140 140 140 140 140 140 140 140 140 134 134 134 134 140 140 140 140 140 140 140 140 134 134 134 134 138 138 138 138 138 138 138 138 138 138 138 138 138 138 138 138 141 141 141 141 141 141 141 141 139 139 139 139 139 139 139 139 139 139 139 139 138 138 138 138 140 140 140 140 134 134 134 134 140 140 140 140 138 138 138 138 138 138 138 138 138 138 138 138 139 139 139 139 139 139 139 139 141 141 141 141 141 141 141 141 141 141 141 141 139 139 139 139 141 141 141 141 141 141 141 141 141 141 141 141 145 145 145 145 142 142 142 142 143 143 143 143 143 143 143 143 145 145 145 145 145 145 145 145 145 145 145 145 145 145 145 145 145 145 145 145 140 140 140 140 129 129 129 129 137 137 137 137 140 140 140 140 145 145 145 145 145 145 145 145 142 142 142 142 144 144 144 144 144 144 144 144 144 144 144 144 144 144 144 144 148 148 148 148 143 143 143 143 143 143 143 143 148 148 148 148 144 144 144 144 144 144 144 144 148 148 148 148 147
138 138 138 138 134 134 134 134 137 137 137 137 129 129 129 129 140 140 140 140 140 140 140 140 134 134 134 134 129 129 129 129 131 131 131 131 131 131 131 131 136 136 136 136 136 136 136 136 136 136 136 136 132 132 132 132 131 131 131 131 135 135 135 135 129 129 129 129 140 140 140 140 129 129 129 129 136 136 136 136 140 140 140 140 140 140 140 140 134 134 134 134 140 140 140 140 140 140 140 140 140 140 140 140 139 139 139 139 139 139 139 139 134 134 134 134 140 140 140 140 140 140 140 140 137 137 137 137 136 136 136 136 135 135 135 135 131 131 131 131 131 131 131 131 130 130 130 130 131 131 131 131 135 135 135 135 135 135 135 135 129 129 129 129 140 140 140 140 140 140 140 140 136 136 136 136 135 135 135 135 136 136 136 136 129 129 129 129 129 129 129 129 136 136 136 136 132 132 132 132 131 131 131 131 132 132 132 132 135 135 135 135 131 131 131 131 130 130 130 130 128 128 128 128 128 128 128 128 133 133 133 133 130 130 130 130 128 128 128 128 127 127 127 127 124 124 124 124 121 121 121 121 123 123 123 123 125 125 125 125 127 127 127 127 128 128 128 128 128 128 128 128 127 127 127 127 127 127 127 127 125 125 125 125 121 121 121 121 123 123 123 123 126 126 126 126 124 124 124 124 128 128 128 128 133 133 133 133 131 131 131 131 132 132 132 132 135 135 135 135 129 129 129 129 137 137 137 137 137 137 137 137 140 140 140 140 140 140 140 140 140 140 140 140 140 140 140 140 140 140 140 140 140 140 140 140 140 140 140 140 140 140 140 140 140 140 140 140 140 140 140 140 140 140 140 140 140 140 140 140 134 134 134 134 140 140 140 140 140 140 140 140 134 134 134 134 138 138 138 138 138 138 138 138 138 138 138 138 138 138 138 138 141 141 141 141 141 141 141 141 139 139 139 139 139 139 139 139 139 139 139 139 138 138 138 138 140 140 140 140 134 134 134 134 140 140 140 140 138 138 138 138 138 138 138 138 138 138 138 138 139 139 139 139 139 139 139 139 141 141 141 141 141 141 141 141 141 141 141 141 139 139 139 139 141 141 141 141 141 141 141 141 141 141 141 141 145 145 145 145 142 142 142 142 143 143 143 143 143 143 143 143 145 145 145 145 145 145 145 145 145 145 145 145 145 145 145 145 145 145 145 145 140 140 140 140 129 129 129 129 137 137 137 137 140 140 140 140 145 145 145 145 145 145 145 145 142 142 142 142 144 144 144 144 144 144 144 144 144 144 144 144 144 144 144 144 148 148 148 148 143 143 143 143 143 143 143 143 148 148 148 148 144 144 144 144 144 144 144 144 148 148 148 148 147
138 138 138 138 134 134 134 134 137 137 137 137 129 129 129 129 140 140 140 140 140 140 140 140 134 134 134 134 129 129 129 129 131 131 131 131 131 131 131 131 136 136 136 136 136 136 136 136 136 136 136 136 132 132 132 132 131 131 131 131 135 135 135 135 129 129 129 129 140 140 140 140 129 129 129 129 136 136 136 136 140 140 140 140 140 140 140 140 134 134 134 134 140 140 140 140 140 140 140 140 140 140 140 140 139 139 139 139 139 139 139 139 134 134 134 134 140 140 140 140 140 140 140 140 137 137 137 137 136 136 136 136 135 135 135 135 131 131 131 131 131 131 131 131 130 130 130 130 131 131 131 131 135 135 135 135 135 135 135 135 129 129 129 129 140 140 140 140 140 140 140 140 136 136 136 136 135 135 135 135 136 136 136 136 129 129 129 129 129 129 129 129 136 136 136 136 132 132 132 132 131 131 131 131 132 132 132 132 135 135 135 135 131 131 131 131 130 130 130 130 128 128 128 128 128 128 128 128 133 133 133 133 130 130 130 130 128 128 128 128 127 127 127 127 124 124 124 124 121 121 121 121 123 123 123 123 125 125 125 125 127 127 127 127 128 128 128 128 128 128 128 128 127 127 127 127 127 127 127 127 125 125 125 125 121 121 121 121 123 123 123 123 126 126 126 126 124 124 124 124 128 128 128 128 133 133 133 133 131 131 131 131 132 132 132 132 135 135 135 135 129 129 129 129 137 137 137 137 137 137 137 137 140 140 140 140 140 140 140 140 140 140 140 140 140 140 140 140 140 140 140 140 140 140 140 140 140 140 140 140 140 140 140 140 140 140 140 140 140 140 140 140 140 140 140 140 140 140 140 140 134 134 134 134 140 140 140 140 140 140 140 140 134 134 134 134 138 138 138 138 138 138 138 138 138 138 138 138 138 138 138 138 141 141 141 141 141 141 141 141 139 139 139 139 139 139 139 139 139 139 139 139 138 138 138 138 140 140 140 140 134 134 134 134 140 140 140 140 138 138 138 138 138 138 138 138 138 138 138 138 139 139 139 139 139 139 139 139 141 141 141 141 141 141 141 141 141 141 141 141 139 139 139 139 141 141 141 141 141 141 141 141 141 141 141 141 145 145 145 145 142 142 142 142 143 143 143 143 143 143 143 143 145 145 145 145 145 145 145 145 145 145 145 145 145 145 145 145 145 145 145 145 140 140 140 140 129 129 129 129 137 137 137 137 140 140 140 140 145 145 145 145 145 145 145 145 142 142 142 142 144 144 144 144 144 144 144 144 144 144 144 144 144 144 144 144 148 148 148 148 143 143 143 143 143 143 143 143 148 148 148 148 144 144 144 144 144 144 144 144 148 148 148 148 147
138 138 138 138 134 134 134 134 137 137 137 137 129 129 129 129 140 140 140 140 140 140 140 140 134 134 134 134 129 129 129 129 131 131 131 131 131 131 131 131 136 136 136 136 136 136 136 136 136 136 136 136 132 132 132 132 131 131 131 131 135 135 135 135 129 129 129 129 140 140 140 140 129 129 129 129 136 136 136 136 140 140 140 140 140 140 140 140 134 134 134 134 140 140 140 140 140 140 140 140 140 140 140 140 139 139 139 139 139 139 139 139 134 134 134 134 140 140 140 140 140 140 140 140 137 137 137 137 136 136 136 136 135 135 135 135 131 131 131 131 131 131 131 131 130 130 130 130 131 131 131 131 135 135 135 135 135 135 135 135 129 129 129 129 140 140 140 140 140 140 140 140 136 136 136 136 135 135 135 135 136 136 136 136 129 129 129 129 129 129 129 129 136 136 136 136 132 132 132 132 131 131 131 131 132 132 132 132 135 135 135 135 131 131 131 131 130 130 130 130 128 128 128 128 128 128 128 128 133 133 133 133 130 130 130 130 128 128 128 128 127 127 127 127 124 124 124 124 121 121 121 121 123 123 123 123 125 125 125 125 127 127 127 127 128 128 128 128 128 128 128 128 127 127 127 127 127 127 127 127 125 125 125 125 121 121 121 121 123 123 123 123 126 126 126 126 124 124 124 124 128 128 128 128 133 133 133 133 131 131 131 131 132 132 132 132 135 135 135 135 129 129 129 129 137 137 137 137 137 137 137 137 140 140 140 140 140 140 140 140 140 140 140 140 140 140 140 140 140 140 140 140 140 140 140 140 140 140 140 140 140 140 140 140 140 140 140 140 140 140 140 140 140 140 140 140 140 140 140 140 134 134 134 134 140 140 140 140 140 140 140 140 134 134 134 134 138 138 138 138 138 138 138 138 138 138 138 138 138 138 138 138 141 141 141 141 141 141 141 141 139 139 139 139 139 139 139 139 139 139 139 139 138 138 138 138 140 140 140 140 134 134 134 134 140 140 140 140 138 138 138 138 138 138 138 138 138 138 138 138 139 139 139 139 139 139 139 139 141 141 141 141 141 141 141 141 141 141 141 141 139 139 139 139 141 141 141 141 141 141 141 141 141 141 141 141 145 145 145 145 142 142 142 142 143 143 143 143 143 143 143 143 145 145 145 145 145 145 145 145 145 145 145 145 145 145 145 145 145 145 145 145 140 140 140 140 129 129 129 129 137 137 137 137 140 140 140 140 145 145 145 145 145 145 145 145 142 142 142 142 144 144 144 144 144 144 144 144 144 144 144 144 144 144 144 144 148 148 148 148 143 143 143 143 143 143 143 143 148 148 148 148 144 144 144 144 144 144 144 144 148 148 148 148 147
138 138 138 138 140 140 140 140 140 140 140 140 137 137 137 137 140 140 140 140 134 134 134 134 134 134 134 134 140 140 140 140 132 132 132 132 131 131 131 131 129 129 129 129 137 137 137 137 137 137 137 137 135 135 135 135 131 131 131 131 136 136 136 136 137 137 137 137 140 140 140 140 140 140 140 140 137 137 137 137 140 140 140 140 134 134 134 134 134 134 134 134 140 140 140 140 140 140 140 140 140 140 140 140 139 139 139 139 141 141 141 141 138 138 138 138 140 140 140 140 140 140 140 140 137 137 137 137 136 136 136 136 135 135 135 135 132 132 132 132 130 130 130 130 131 131 131 131 135 135 135 135 129 129 129 129 137 137 137 137 140 140 140 140 134 134 134 134 140 140 140 140 129 129 129 129 129 129 129 129 140 140 140 140 140 140 140 140 140 140 140 140 129 129 129 129 136 136 136 136 132 132 132 132 132 132 132 132 135 135 135 135 131 131 131 131 133 133 133 133 130 130 130 130 130 130 130 130 130 130 130 130 131 131 131 131 133 133 133 133 128 128 128 128 128 128 128 128 124 124 124 124 126 126 126 126 124 124 124 124 128 128 128 128 128 128 128 128 133 133 133 133 133 133 133 133 127 127 127 127 124 124 124 124 125 125 125 125 121 121 121 121 126 126 126 126 124 124 124 124 127 127 127 127 128 128 128 128 130 130 130 130 131 131 131 131 130 130 130 130 132 132 132 132 135 135 135 135 129 129 129 129 137 137 137 137 140 140 140 140 137 137 137 137 137 137 137 137 140 140 140 140 140 140 140 140 140 140 140 140 140 140 140 140 140 140 140 140 140 140 140 140 140 140 140 140 134 134 134 134 134 134 134 134 140 140 140 140 140 140 140 140 134 134 134 134 134 134 134 134 138 138 138 138 138 138 138 138 138 138 138 138 138 138 138 138 141 141 141 141 139 139 139 139 139 139 139 139 141 141 141 141 141 141 141 141 134 134 134 134 138 138 138 138 141 141 141 141 145 145 145 145 139 139 139 139 145 145 145 145 145 145 145 145 145 145 145 145 145 145 145 145 145 145 145 145 145 145 145 145 145 145 145 145 145 145 145 145 142 142 142 142 142 142 142 142 142 142 142 142 142 142 142 142 143 143 143 143 142 142 142 142 142 142 142 142 143 143 143 143 143 143 143 143 143 143 143 143 142 142 142 142 134 134 134 134 140 140 140 140 141 141 141 141 139 139 139 139 145 145 145 145 145 145 145 145 142 142 142 142 143 143 143 143 144 144 144 144 142 142 142 142 144 144 144 144 146 146 146 146 144 144 144 144 148 148 148 148 146 146 146 146 144 144 144 144 144 144 144 144 148 148 148 148 147
