ncols         487
nrows         60
xllcorner     4966250
yllcorner     2796500
cellsize      250
NODATA_value  -9999
44 44 44 44 43 43 43 43 43 43 43 43 48 48 48 48 61 61 61 61 58 58 58 58 47 47 47 47 40 40 40 40 40 40 40 40 43 43 43 43 56 56 56 56 69 69 69 69 72 72 72 72 83 83 83 83 96 96 96 96 113 113 113 113 127 127 127 127 117 117 117 117 122 122 122 122 128 128 128 128 129 129 129 129 132 132 132 132 130 130 130 130 127 127 127 127 128 128 128 128 120 120 120 120 126 126 126 126 115 115 115 115 102 102 102 102 94 94 94 94 90 90 90 90 85 85 85 85 84 84 84 84 76 76 76 76 68 68 68 68 67 67 67 67 63 63 63 63 65 65 65 65 69 69 69 69 73 73 73 73 66 66 66 66 63 63 63 63 60 60 60 60 57 57 57 57 69 69 69 69 83 83 83 83 74 74 74 74 91 91 91 91 85 85 85 85 92 92 92 92 78 78 78 78 73 73 73 73 68 68 68 68 82 82 82 82 82 82 82 82 71 71 71 71 63 63 63 63 81 81 81 81 79 79 79 79 79 79 79 79 70 70 70 70 74 74 74 74 92 92 92 92 94 94 94 94 102 102 102 102 110 110 110 110 114 114 114 114 111 111 111 111 102 102 102 102 104 104 104 104 90 90 90 90 89 89 89 89 100 100 100 100 110 110 110 110 119 119 119 119 109 109 109 109 94 94 94 94 83 83 83 83 85 85 85 85 77 77 77 77 67 67 67 67 85 85 85 85 78 78 78 78 63 63 63 63 63 63 63 63 67 67 67 67 78 78 78 78 78 78 78 78 92 92 92 92 94 94 94 94 96 96 96 96 102 102 102 102 102 102 102 102 102 102 102 102 102 102 102 102 102 102 102 102 98 98 98 98 102 102 102 102 98 98 98 98 98 98 98 98 93 93 93 93 92 92 92 92 85 85 85 85 81 81 81 81 85 85 85 85 85 85 85 85 74 74 74 74 81 81 81 81 76 76 76 76 77 77 77 77 68 68 68 68 0 0 0 0 0 0 0 0 0 0 0 0 0 0 0 0 0 0 0 0 0 0 0 0 0 0 0 0 0 0 0 0 0 0 0 0 0 0 0 0 0 0 0
43 43 43 43 43 43 43 43 43 43 43 43 63 63 63 63 69 69 69 69 63 63 63 63 46 46 46 46 37 37 37 37 37 37 37 37 41 41 41 41 55 55 55 55 69 69 69 69 78 78 78 78 92 92 92 92 105 105 105 105 117 117 117 117 133 133 133 133 120 120 120 120 118 118 118 118 126 126 126 126 140 140 140 140 145 145 145 145 134 134 134 134 135 135 135 135 130 130 130 130 125 125 125 125 122 122 122 122 111 111 111 111 101 101 101 101 89 89 89 89 88 88 88 88 83 83 83 83 75 75 75 75 72 72 72 72 67 67 67 67 73 73 73 73 73 73 73 73 79 79 79 79 84 84 84 84 77 77 77 77 69 69 69 69 63 63 63 63 64 64 64 64 57 57 57 57 77 77 77 77 83 83 83 83 73 73 73 73 77 77 77 77 85 85 85 85 89 89 89 89 87 87 87 87 75 75 75 75 69 69 69 69 92 92 92 92 94 94 94 94 77 77 77 77 70 70 70 70 86 86 86 86 88 88 88 88 85 85 85 85 81 81 81 81 78 78 78 78 85 85 85 85 101 101 101 101 113 113 113 113 109 109 109 109 109 109 109 109 107 107 107 107 96 96 96 96 89 89 89 89 83 83 83 83 94 94 94 94 107 107 107 107 112 112 112 112 114 114 114 114 100 100 100 100 83 83 83 83 73 73 73 73 76 76 76 76 78 78 78 78 62 62 62 62 68 68 68 68 75 75 75 75 95 95 95 95 93 93 93 93 86 86 86 86 92 92 92 92 95 95 95 95 97 97 97 97 101 101 101 101 101 101 101 101 109 109 109 109 108 108 108 108 106 106 106 106 109 109 109 109 106 106 106 106 109 109 109 109 105 105 105 105 103 103 103 103 102 102 102 102 90 90 90 90 87 87 87 87 80 80 80 80 78 78 78 78 73 73 73 73 74 74 74 74 79 79 79 79 73 73 73 73 77 77 77 77 69 69 69 69 63 63 63 63 0 0 0 0 0 0 0 0 0 0 0 0 0 0 0 0 0 0 0 0 0 0 0 0 0 0 0 0 0 0 0 0 0 0 0 0 0 0 0 0 0 0 0
43 43 43 43 43 43 43 43 43 43 43 43 63 63 63 63 69 69 69 69 63 63 63 63 46 46 46 46 37 37 37 37 37 37 37 37 41 41 41 41 55 55 55 55 69 69 69 69 78 78 78 78 92 92 92 92 105 105 105 105 117 117 117 117 133 133 133 133 120 120 120 120 118 118 118 118 126 126 126 126 140 140 140 140 145 145 145 145 134 134 134 134 135 135 135 135 130 130 130 130 125 125 125 125 122 122 122 122 111 111 111 111 101 101 101 101 89 89 89 89 88 88 88 88 83 83 83 83 75 75 75 75 72 72 72 72 67 67 67 67 73 73 73 73 73 73 73 73 79 79 79 79 84 84 84 84 77 77 77 77 69 69 69 69 63 63 63 63 64 64 64 64 57 57 57 57 77 77 77 77 83 83 83 83 73 73 73 73 77 77 77 77 85 85 85 85 89 89 89 89 87 87 87 87 75 75 75 75 69 69 69 69 92 92 92 92 94 94 94 94 77 77 77 77 70 70 70 70 86 86 86 86 88 88 88 88 85 85 85 85 81 81 81 81 78 78 78 78 85 85 85 85 101 101 101 101 113 113 113 113 109 109 109 109 109 109 109 109 107 107 107 107 96 96 96 96 89 89 89 89 83 83 83 83 94 94 94 94 107 107 107 107 112 112 112 112 114 114 114 114 100 100 100 100 83 83 83 83 73 73 73 73 76 76 76 76 78 78 78 78 62 62 62 62 68 68 68 68 75 75 75 75 95 95 95 95 93 93 93 93 86 86 86 86 92 92 92 92 95 95 95 95 97 97 97 97 101 101 101 101 101 101 101 101 109 109 109 109 108 108 108 108 106 106 106 106 109 109 109 109 106 106 106 106 109 109 109 109 105 105 105 105 103 103 103 103 102 102 102 102 90 90 90 90 87 87 87 87 80 80 80 80 78 78 78 78 73 73 73 73 74 74 74 74 79 79 79 79 73 73 73 73 77 77 77 77 69 69 69 69 63 63 63 63 0 0 0 0 0 0 0 0 0 0 0 0 0 0 0 0 0 0 0 0 0 0 0 0 0 0 0 0 0 0 0 0 0 0 0 0 0 0 0 0 0 0 0
43 43 43 43 43 43 43 43 43 43 43 43 63 63 63 63 69 69 69 69 63 63 63 63 46 46 46 46 37 37 37 37 37 37 37 37 41 41 41 41 55 55 55 55 69 69 69 69 78 78 78 78 92 92 92 92 105 105 105 105 117 117 117 117 133 133 133 133 120 120 120 120 118 118 118 118 126 126 126 126 140 140 140 140 145 145 145 145 134 134 134 134 135 135 135 135 130 130 130 130 125 125 125 125 122 122 122 122 111 111 111 111 101 101 101 101 89 89 89 89 88 88 88 88 83 83 83 83 75 75 75 75 72 72 72 72 67 67 67 67 73 73 73 73 73 73 73 73 79 79 79 79 84 84 84 84 77 77 77 77 69 69 69 69 63 63 63 63 64 64 64 64 57 57 57 57 77 77 77 77 83 83 83 83 73 73 73 73 77 77 77 77 85 85 85 85 89 89 89 89 87 87 87 87 75 75 75 75 69 69 69 69 92 92 92 92 94 94 94 94 77 77 77 77 70 70 70 70 86 86 86 86 88 88 88 88 85 85 85 85 81 81 81 81 78 78 78 78 85 85 85 85 101 101 101 101 113 113 113 113 109 109 109 109 109 109 109 109 107 107 107 107 96 96 96 96 89 89 89 89 83 83 83 83 94 94 94 94 107 107 107 107 112 112 112 112 114 114 114 114 100 100 100 100 83 83 83 83 73 73 73 73 76 76 76 76 78 78 78 78 62 62 62 62 68 68 68 68 75 75 75 75 95 95 95 95 93 93 93 93 86 86 86 86 92 92 92 92 95 95 95 95 97 97 97 97 101 101 101 101 101 101 101 101 109 109 109 109 108 108 108 108 106 106 106 106 109 109 109 109 106 106 106 106 109 109 109 109 105 105 105 105 103 103 103 103 102 102 102 102 90 90 90 90 87 87 87 87 80 80 80 80 78 78 78 78 73 73 73 73 74 74 74 74 79 79 79 79 73 73 73 73 77 77 77 77 69 69 69 69 63 63 63 63 0 0 0 0 0 0 0 0 0 0 0 0 0 0 0 0 0 0 0 0 0 0 0 0 0 0 0 0 0 0 0 0 0 0 0 0 0 0 0 0 0 0 0
43 43 43 43 43 43 43 43 43 43 43 43 63 63 63 63 69 69 69 69 63 63 63 63 46 46 46 46 37 37 37 37 37 37 37 37 41 41 41 41 55 55 55 55 69 69 69 69 78 78 78 78 92 92 92 92 105 105 105 105 117 117 117 117 133 133 133 133 120 120 120 120 118 118 118 118 126 126 126 126 140 140 140 140 145 145 145 145 134 134 134 134 135 135 135 135 130 130 130 130 125 125 125 125 122 122 122 122 111 111 111 111 101 101 101 101 89 89 89 89 88 88 88 88 83 83 83 83 75 75 75 75 72 72 72 72 67 67 67 67 73 73 73 73 73 73 73 73 79 79 79 79 84 84 84 84 77 77 77 77 69 69 69 69 63 63 63 63 64 64 64 64 57 57 57 57 77 77 77 77 83 83 83 83 73 73 73 73 77 77 77 77 85 85 85 85 89 89 89 89 87 87 87 87 75 75 75 75 69 69 69 69 92 92 92 92 94 94 94 94 77 77 77 77 70 70 70 70 86 86 86 86 88 88 88 88 85 85 85 85 81 81 81 81 78 78 78 78 85 85 85 85 101 101 101 101 113 113 113 113 109 109 109 109 109 109 109 109 107 107 107 107 96 96 96 96 89 89 89 89 83 83 83 83 94 94 94 94 107 107 107 107 112 112 112 112 114 114 114 114 100 100 100 100 83 83 83 83 73 73 73 73 76 76 76 76 78 78 78 78 62 62 62 62 68 68 68 68 75 75 75 75 95 95 95 95 93 93 93 93 86 86 86 86 92 92 92 92 95 95 95 95 97 97 97 97 101 101 101 101 101 101 101 101 109 109 109 109 108 108 108 108 106 106 106 106 109 109 109 109 106 106 106 106 109 109 109 109 105 105 105 105 103 103 103 103 102 102 102 102 90 90 90 90 87 87 87 87 80 80 80 80 78 78 78 78 73 73 73 73 74 74 74 74 79 79 79 79 73 73 73 73 77 77 77 77 69 69 69 69 63 63 63 63 0 0 0 0 0 0 0 0 0 0 0 0 0 0 0 0 0 0 0 0 0 0 0 0 0 0 0 0 0 0 0 0 0 0 0 0 0 0 0 0 0 0 0
42 42 42 42 41 41 41 41 45 45 45 45 63 63 63 63 72 72 72 72 71 71 71 71 44 44 44 44 37 37 37 37 37 37 37 37 45 45 45 45 63 63 63 63 69 69 69 69 77 77 77 77 85 85 85 85 105 105 105 105 120 120 120 120 124 124 124 124 123 123 123 123 125 125 125 125 124 124 124 124 129 129 129 129 143 143 143 143 145 145 145 145 129 129 129 129 130 130 130 130 124 124 124 124 116 116 116 116 102 102 102 102 94 94 94 94 92 92 92 92 84 84 84 84 82 82 82 82 75 75 75 75 77 77 77 77 69 69 69 69 77 77 77 77 82 82 82 82 87 87 87 87 85 85 85 85 78 78 78 78 73 73 73 73 67 67 67 67 62 62 62 62 57 57 57 57 69 69 69 69 83 83 83 83 70 70 70 70 72 72 72 72 85 85 85 85 94 94 94 94 93 93 93 93 79 79 79 79 80 80 80 80 94 94 94 94 89 89 89 89 85 85 85 85 74 74 74 74 73 73 73 73 82 82 82 82 94 94 94 94 94 94 94 94 88 88 88 88 95 95 95 95 106 106 106 106 106 106 106 106 105 105 105 105 97 97 97 97 97 97 97 97 91 91 91 91 92 92 92 92 89 89 89 89 101 101 101 101 107 107 107 107 116 116 116 116 110 110 110 110 95 95 95 95 80 80 80 80 67 67 67 67 65 65 65 65 61 61 61 61 58 58 58 58 67 67 67 67 94 94 94 94 103 103 103 103 101 101 101 101 101 101 101 101 94 94 94 94 101 101 101 101 102 102 102 102 106 106 106 106 109 109 109 109 110 110 110 110 115 115 115 115 114 114 114 114 110 110 110 110 114 114 114 114 111 111 111 111 106 106 106 106 101 101 101 101 97 97 97 97 91 91 91 91 86 86 86 86 80 80 80 80 80 80 80 80 75 75 75 75 68 68 68 68 79 79 79 79 72 72 72 72 73 73 73 73 67 67 67 67 76 76 76 76 0 0 0 0 0 0 0 0 0 0 0 0 0 0 0 0 0 0 0 0 0 0 0 0 0 0 0 0 0 0 0 0 0 0 0 0 0 0 0 0 0 0 0
42 42 42 42 41 41 41 41 45 45 45 45 63 63 63 63 72 72 72 72 71 71 71 71 44 44 44 44 37 37 37 37 37 37 37 37 45 45 45 45 63 63 63 63 69 69 69 69 77 77 77 77 85 85 85 85 105 105 105 105 120 120 120 120 124 124 124 124 123 123 123 123 125 125 125 125 124 124 124 124 129 129 129 129 143 143 143 143 145 145 145 145 129 129 129 129 130 130 130 130 124 124 124 124 116 116 116 116 102 102 102 102 94 94 94 94 92 92 92 92 84 84 84 84 82 82 82 82 75 75 75 75 77 77 77 77 69 69 69 69 77 77 77 77 82 82 82 82 87 87 87 87 85 85 85 85 78 78 78 78 73 73 73 73 67 67 67 67 62 62 62 62 57 57 57 57 69 69 69 69 83 83 83 83 70 70 70 70 72 72 72 72 85 85 85 85 94 94 94 94 93 93 93 93 79 79 79 79 80 80 80 80 94 94 94 94 89 89 89 89 85 85 85 85 74 74 74 74 73 73 73 73 82 82 82 82 94 94 94 94 94 94 94 94 88 88 88 88 95 95 95 95 106 106 106 106 106 106 106 106 105 105 105 105 97 97 97 97 97 97 97 97 91 91 91 91 92 92 92 92 89 89 89 89 101 101 101 101 107 107 107 107 116 116 116 116 110 110 110 110 95 95 95 95 80 80 80 80 67 67 67 67 65 65 65 65 61 61 61 61 58 58 58 58 67 67 67 67 94 94 94 94 103 103 103 103 101 101 101 101 101 101 101 101 94 94 94 94 101 101 101 101 102 102 102 102 106 106 106 106 109 109 109 109 110 110 110 110 115 115 115 115 114 114 114 114 110 110 110 110 114 114 114 114 111 111 111 111 106 106 106 106 101 101 101 101 97 97 97 97 91 91 91 91 86 86 86 86 80 80 80 80 80 80 80 80 75 75 75 75 68 68 68 68 79 79 79 79 72 72 72 72 73 73 73 73 67 67 67 67 76 76 76 76 0 0 0 0 0 0 0 0 0 0 0 0 0 0 0 0 0 0 0 0 0 0 0 0 0 0 0 0 0 0 0 0 0 0 0 0 0 0 0 0 0 0 0
42 42 42 42 41 41 41 41 45 45 45 45 63 63 63 63 72 72 72 72 71 71 71 71 44 44 44 44 37 37 37 37 37 37 37 37 45 45 45 45 63 63 63 63 69 69 69 69 77 77 77 77 85 85 85 85 105 105 105 105 120 120 120 120 124 124 124 124 123 123 123 123 125 125 125 125 124 124 124 124 129 129 129 129 143 143 143 143 145 145 145 145 129 129 129 129 130 130 130 130 124 124 124 124 116 116 116 116 102 102 102 102 94 94 94 94 92 92 92 92 84 84 84 84 82 82 82 82 75 75 75 75 77 77 77 77 69 69 69 69 77 77 77 77 82 82 82 82 87 87 87 87 85 85 85 85 78 78 78 78 73 73 73 73 67 67 67 67 62 62 62 62 57 57 57 57 69 69 69 69 83 83 83 83 70 70 70 70 72 72 72 72 85 85 85 85 94 94 94 94 93 93 93 93 79 79 79 79 80 80 80 80 94 94 94 94 89 89 89 89 85 85 85 85 74 74 74 74 73 73 73 73 82 82 82 82 94 94 94 94 94 94 94 94 88 88 88 88 95 95 95 95 106 106 106 106 106 106 106 106 105 105 105 105 97 97 97 97 97 97 97 97 91 91 91 91 92 92 92 92 89 89 89 89 101 101 101 101 107 107 107 107 116 116 116 116 110 110 110 110 95 95 95 95 80 80 80 80 67 67 67 67 65 65 65 65 61 61 61 61 58 58 58 58 67 67 67 67 94 94 94 94 103 103 103 103 101 101 101 101 101 101 101 101 94 94 94 94 101 101 101 101 102 102 102 102 106 106 106 106 109 109 109 109 110 110 110 110 115 115 115 115 114 114 114 114 110 110 110 110 114 114 114 114 111 111 111 111 106 106 106 106 101 101 101 101 97 97 97 97 91 91 91 91 86 86 86 86 80 80 80 80 80 80 80 80 75 75 75 75 68 68 68 68 79 79 79 79 72 72 72 72 73 73 73 73 67 67 67 67 76 76 76 76 0 0 0 0 0 0 0 0 0 0 0 0 0 0 0 0 0 0 0 0 0 0 0 0 0 0 0 0 0 0 0 0 0 0 0 0 0 0 0 0 0 0 0
42 42 42 42 41 41 41 41 45 45 45 45 63 63 63 63 72 72 72 72 71 71 71 71 44 44 44 44 37 37 37 37 37 37 37 37 45 45 45 45 63 63 63 63 69 69 69 69 77 77 77 77 85 85 85 85 105 105 105 105 120 120 120 120 124 124 124 124 123 123 123 123 125 125 125 125 124 124 124 124 129 129 129 129 143 143 143 143 145 145 145 145 129 129 129 129 130 130 130 130 124 124 124 124 116 116 116 116 102 102 102 102 94 94 94 94 92 92 92 92 84 84 84 84 82 82 82 82 75 75 75 75 77 77 77 77 69 69 69 69 77 77 77 77 82 82 82 82 87 87 87 87 85 85 85 85 78 78 78 78 73 73 73 73 67 67 67 67 62 62 62 62 57 57 57 57 69 69 69 69 83 83 83 83 70 70 70 70 72 72 72 72 85 85 85 85 94 94 94 94 93 93 93 93 79 79 79 79 80 80 80 80 94 94 94 94 89 89 89 89 85 85 85 85 74 74 74 74 73 73 73 73 82 82 82 82 94 94 94 94 94 94 94 94 88 88 88 88 95 95 95 95 106 106 106 106 106 106 106 106 105 105 105 105 97 97 97 97 97 97 97 97 91 91 91 91 92 92 92 92 89 89 89 89 101 101 101 101 107 107 107 107 116 116 116 116 110 110 110 110 95 95 95 95 80 80 80 80 67 67 67 67 65 65 65 65 61 61 61 61 58 58 58 58 67 67 67 67 94 94 94 94 103 103 103 103 101 101 101 101 101 101 101 101 94 94 94 94 101 101 101 101 102 102 102 102 106 106 106 106 109 109 109 109 110 110 110 110 115 115 115 115 114 114 114 114 110 110 110 110 114 114 114 114 111 111 111 111 106 106 106 106 101 101 101 101 97 97 97 97 91 91 91 91 86 86 86 86 80 80 80 80 80 80 80 80 75 75 75 75 68 68 68 68 79 79 79 79 72 72 72 72 73 73 73 73 67 67 67 67 76 76 76 76 0 0 0 0 0 0 0 0 0 0 0 0 0 0 0 0 0 0 0 0 0 0 0 0 0 0 0 0 0 0 0 0 0 0 0 0 0 0 0 0 0 0 0
42 42 42 42 42 42 42 42 61 61 61 61 68 68 68 68 77 77 77 77 59 59 59 59 41 41 41 41 39 39 39 39 40 40 40 40 58 58 58 58 73 73 73 73 77 77 77 77 74 74 74 74 84 84 84 84 102 102 102 102 114 114 114 114 116 116 116 116 121 121 121 121 128 128 128 128 136 136 136 136 140 140 140 140 140 140 140 140 136 136 136 136 131 131 131 131 130 130 130 130 125 125 125 125 114 114 114 114 99 99 99 99 91 91 91 91 83 83 83 83 79 79 79 79 77 77 77 77 75 75 75 75 75 75 75 75 74 74 74 74 77 77 77 77 75 75 75 75 77 77 77 77 81 81 81 81 79 79 79 79 74 74 74 74 69 69 69 69 65 65 65 65 61 61 61 61 61 61 61 61 73 73 73 73 71 71 71 71 67 67 67 67 77 77 77 77 88 88 88 88 95 95 95 95 86 86 86 86 83 83 83 83 83 83 83 83 85 85 85 85 85 85 85 85 75 75 75 75 84 84 84 84 77 77 77 77 83 83 83 83 94 94 94 94 90 90 90 90 97 97 97 97 110 110 110 110 109 109 109 109 98 98 98 98 89 89 89 89 91 91 91 91 85 85 85 85 83 83 83 83 102 102 102 102 108 108 108 108 110 110 110 110 114 114 114 114 94 94 94 94 80 80 80 80 68 68 68 68 57 57 57 57 57 57 57 57 60 60 60 60 67 67 67 67 83 83 83 83 89 89 89 89 89 89 89 89 98 98 98 98 103 103 103 103 101 101 101 101 107 107 107 107 108 108 108 108 110 110 110 110 114 114 114 114 115 115 115 115 122 122 122 122 117 117 117 117 116 116 116 116 116 116 116 116 114 114 114 114 106 106 106 106 102 102 102 102 94 94 94 94 91 91 91 91 84 84 84 84 82 82 82 82 81 81 81 81 75 75 75 75 69 69 69 69 74 74 74 74 77 77 77 77 63 63 63 63 68 68 68 68 67 67 67 67 0 0 0 0 0 0 0 0 0 0 0 0 0 0 0 0 0 0 0 0 0 0 0 0 0 0 0 0 0 0 0 0 0 0 0 0 0 0 0 0 0 0 0
42 42 42 42 42 42 42 42 61 61 61 61 68 68 68 68 77 77 77 77 59 59 59 59 41 41 41 41 39 39 39 39 40 40 40 40 58 58 58 58 73 73 73 73 77 77 77 77 74 74 74 74 84 84 84 84 102 102 102 102 114 114 114 114 116 116 116 116 121 121 121 121 128 128 128 128 136 136 136 136 140 140 140 140 140 140 140 140 136 136 136 136 131 131 131 131 130 130 130 130 125 125 125 125 114 114 114 114 99 99 99 99 91 91 91 91 83 83 83 83 79 79 79 79 77 77 77 77 75 75 75 75 75 75 75 75 74 74 74 74 77 77 77 77 75 75 75 75 77 77 77 77 81 81 81 81 79 79 79 79 74 74 74 74 69 69 69 69 65 65 65 65 61 61 61 61 61 61 61 61 73 73 73 73 71 71 71 71 67 67 67 67 77 77 77 77 88 88 88 88 95 95 95 95 86 86 86 86 83 83 83 83 83 83 83 83 85 85 85 85 85 85 85 85 75 75 75 75 84 84 84 84 77 77 77 77 83 83 83 83 94 94 94 94 90 90 90 90 97 97 97 97 110 110 110 110 109 109 109 109 98 98 98 98 89 89 89 89 91 91 91 91 85 85 85 85 83 83 83 83 102 102 102 102 108 108 108 108 110 110 110 110 114 114 114 114 94 94 94 94 80 80 80 80 68 68 68 68 57 57 57 57 57 57 57 57 60 60 60 60 67 67 67 67 83 83 83 83 89 89 89 89 89 89 89 89 98 98 98 98 103 103 103 103 101 101 101 101 107 107 107 107 108 108 108 108 110 110 110 110 114 114 114 114 115 115 115 115 122 122 122 122 117 117 117 117 116 116 116 116 116 116 116 116 114 114 114 114 106 106 106 106 102 102 102 102 94 94 94 94 91 91 91 91 84 84 84 84 82 82 82 82 81 81 81 81 75 75 75 75 69 69 69 69 74 74 74 74 77 77 77 77 63 63 63 63 68 68 68 68 67 67 67 67 0 0 0 0 0 0 0 0 0 0 0 0 0 0 0 0 0 0 0 0 0 0 0 0 0 0 0 0 0 0 0 0 0 0 0 0 0 0 0 0 0 0 0
42 42 42 42 42 42 42 42 61 61 61 61 68 68 68 68 77 77 77 77 59 59 59 59 41 41 41 41 39 39 39 39 40 40 40 40 58 58 58 58 73 73 73 73 77 77 77 77 74 74 74 74 84 84 84 84 102 102 102 102 114 114 114 114 116 116 116 116 121 121 121 121 128 128 128 128 136 136 136 136 140 140 140 140 140 140 140 140 136 136 136 136 131 131 131 131 130 130 130 130 125 125 125 125 114 114 114 114 99 99 99 99 91 91 91 91 83 83 83 83 79 79 79 79 77 77 77 77 75 75 75 75 75 75 75 75 74 74 74 74 77 77 77 77 75 75 75 75 77 77 77 77 81 81 81 81 79 79 79 79 74 74 74 74 69 69 69 69 65 65 65 65 61 61 61 61 61 61 61 61 73 73 73 73 71 71 71 71 67 67 67 67 77 77 77 77 88 88 88 88 95 95 95 95 86 86 86 86 83 83 83 83 83 83 83 83 85 85 85 85 85 85 85 85 75 75 75 75 84 84 84 84 77 77 77 77 83 83 83 83 94 94 94 94 90 90 90 90 97 97 97 97 110 110 110 110 109 109 109 109 98 98 98 98 89 89 89 89 91 91 91 91 85 85 85 85 83 83 83 83 102 102 102 102 108 108 108 108 110 110 110 110 114 114 114 114 94 94 94 94 80 80 80 80 68 68 68 68 57 57 57 57 57 57 57 57 60 60 60 60 67 67 67 67 83 83 83 83 89 89 89 89 89 89 89 89 98 98 98 98 103 103 103 103 101 101 101 101 107 107 107 107 108 108 108 108 110 110 110 110 114 114 114 114 115 115 115 115 122 122 122 122 117 117 117 117 116 116 116 116 116 116 116 116 114 114 114 114 106 106 106 106 102 102 102 102 94 94 94 94 91 91 91 91 84 84 84 84 82 82 82 82 81 81 81 81 75 75 75 75 69 69 69 69 74 74 74 74 77 77 77 77 63 63 63 63 68 68 68 68 67 67 67 67 0 0 0 0 0 0 0 0 0 0 0 0 0 0 0 0 0 0 0 0 0 0 0 0 0 0 0 0 0 0 0 0 0 0 0 0 0 0 0 0 0 0 0
42 42 42 42 42 42 42 42 61 61 61 61 68 68 68 68 77 77 77 77 59 59 59 59 41 41 41 41 39 39 39 39 40 40 40 40 58 58 58 58 73 73 73 73 77 77 77 77 74 74 74 74 84 84 84 84 102 102 102 102 114 114 114 114 116 116 116 116 121 121 121 121 128 128 128 128 136 136 136 136 140 140 140 140 140 140 140 140 136 136 136 136 131 131 131 131 130 130 130 130 125 125 125 125 114 114 114 114 99 99 99 99 91 91 91 91 83 83 83 83 79 79 79 79 77 77 77 77 75 75 75 75 75 75 75 75 74 74 74 74 77 77 77 77 75 75 75 75 77 77 77 77 81 81 81 81 79 79 79 79 74 74 74 74 69 69 69 69 65 65 65 65 61 61 61 61 61 61 61 61 73 73 73 73 71 71 71 71 67 67 67 67 77 77 77 77 88 88 88 88 95 95 95 95 86 86 86 86 83 83 83 83 83 83 83 83 85 85 85 85 85 85 85 85 75 75 75 75 84 84 84 84 77 77 77 77 83 83 83 83 94 94 94 94 90 90 90 90 97 97 97 97 110 110 110 110 109 109 109 109 98 98 98 98 89 89 89 89 91 91 91 91 85 85 85 85 83 83 83 83 102 102 102 102 108 108 108 108 110 110 110 110 114 114 114 114 94 94 94 94 80 80 80 80 68 68 68 68 57 57 57 57 57 57 57 57 60 60 60 60 67 67 67 67 83 83 83 83 89 89 89 89 89 89 89 89 98 98 98 98 103 103 103 103 101 101 101 101 107 107 107 107 108 108 108 108 110 110 110 110 114 114 114 114 115 115 115 115 122 122 122 122 117 117 117 117 116 116 116 116 116 116 116 116 114 114 114 114 106 106 106 106 102 102 102 102 94 94 94 94 91 91 91 91 84 84 84 84 82 82 82 82 81 81 81 81 75 75 75 75 69 69 69 69 74 74 74 74 77 77 77 77 63 63 63 63 68 68 68 68 67 67 67 67 0 0 0 0 0 0 0 0 0 0 0 0 0 0 0 0 0 0 0 0 0 0 0 0 0 0 0 0 0 0 0 0 0 0 0 0 0 0 0 0 0 0 0
41 41 41 41 41 41 41 41 48 48 48 48 61 61 61 61 73 73 73 73 58 58 58 58 40 40 40 40 37 37 37 37 37 37 37 37 48 48 48 48 63 63 63 63 73 73 73 73 84 84 84 84 94 94 94 94 103 103 103 103 114 114 114 114 112 112 112 112 120 120 120 120 130 130 130 130 140 140 140 140 129 129 129 129 131 131 131 131 127 127 127 127 127 127 127 127 123 123 123 123 122 122 122 122 106 106 106 106 89 89 89 89 87 87 87 87 82 82 82 82 77 77 77 77 77 77 77 77 82 82 82 82 74 74 74 74 74 74 74 74 72 72 72 72 76 76 76 76 71 71 71 71 73 73 73 73 82 82 82 82 77 77 77 77 73 73 73 73 66 66 66 66 67 67 67 67 58 58 58 58 61 61 61 61 65 65 65 65 69 69 69 69 83 83 83 83 93 93 93 93 94 94 94 94 93 93 93 93 90 90 90 90 88 88 88 88 84 84 84 84 92 92 92 92 88 88 88 88 93 93 93 93 83 83 83 83 78 78 78 78 89 89 89 89 95 95 95 95 101 101 101 101 106 106 106 106 105 105 105 105 94 94 94 94 93 93 93 93 88 88 88 88 92 92 92 92 92 92 92 92 105 105 105 105 103 103 103 103 106 106 106 106 105 105 105 105 87 87 87 87 71 71 71 71 61 61 61 61 56 56 56 56 61 61 61 61 72 72 72 72 81 81 81 81 85 85 85 85 98 98 98 98 102 102 102 102 102 102 102 102 106 106 106 106 114 114 114 114 116 116 116 116 118 118 118 118 121 121 121 121 124 124 124 124 125 125 125 125 125 125 125 125 121 121 121 121 124 124 124 124 124 124 124 124 119 119 119 119 110 110 110 110 103 103 103 103 100 100 100 100 89 89 89 89 92 92 92 92 80 80 80 80 75 75 75 75 80 80 80 80 71 71 71 71 75 75 75 75 66 66 66 66 64 64 64 64 61 61 61 61 63 63 63 63 0 0 0 0 0 0 0 0 0 0 0 0 0 0 0 0 0 0 0 0 0 0 0 0 0 0 0 0 0 0 0 0 0 0 0 0 0 0 0 0 0 0 0
41 41 41 41 41 41 41 41 48 48 48 48 61 61 61 61 73 73 73 73 58 58 58 58 40 40 40 40 37 37 37 37 37 37 37 37 48 48 48 48 63 63 63 63 73 73 73 73 84 84 84 84 94 94 94 94 103 103 103 103 114 114 114 114 112 112 112 112 120 120 120 120 130 130 130 130 140 140 140 140 129 129 129 129 131 131 131 131 127 127 127 127 127 127 127 127 123 123 123 123 122 122 122 122 106 106 106 106 89 89 89 89 87 87 87 87 82 82 82 82 77 77 77 77 77 77 77 77 82 82 82 82 74 74 74 74 74 74 74 74 72 72 72 72 76 76 76 76 71 71 71 71 73 73 73 73 82 82 82 82 77 77 77 77 73 73 73 73 66 66 66 66 67 67 67 67 58 58 58 58 61 61 61 61 65 65 65 65 69 69 69 69 83 83 83 83 93 93 93 93 94 94 94 94 93 93 93 93 90 90 90 90 88 88 88 88 84 84 84 84 92 92 92 92 88 88 88 88 93 93 93 93 83 83 83 83 78 78 78 78 89 89 89 89 95 95 95 95 101 101 101 101 106 106 106 106 105 105 105 105 94 94 94 94 93 93 93 93 88 88 88 88 92 92 92 92 92 92 92 92 105 105 105 105 103 103 103 103 106 106 106 106 105 105 105 105 87 87 87 87 71 71 71 71 61 61 61 61 56 56 56 56 61 61 61 61 72 72 72 72 81 81 81 81 85 85 85 85 98 98 98 98 102 102 102 102 102 102 102 102 106 106 106 106 114 114 114 114 116 116 116 116 118 118 118 118 121 121 121 121 124 124 124 124 125 125 125 125 125 125 125 125 121 121 121 121 124 124 124 124 124 124 124 124 119 119 119 119 110 110 110 110 103 103 103 103 100 100 100 100 89 89 89 89 92 92 92 92 80 80 80 80 75 75 75 75 80 80 80 80 71 71 71 71 75 75 75 75 66 66 66 66 64 64 64 64 61 61 61 61 63 63 63 63 0 0 0 0 0 0 0 0 0 0 0 0 0 0 0 0 0 0 0 0 0 0 0 0 0 0 0 0 0 0 0 0 0 0 0 0 0 0 0 0 0 0 0
41 41 41 41 41 41 41 41 48 48 48 48 61 61 61 61 73 73 73 73 58 58 58 58 40 40 40 40 37 37 37 37 37 37 37 37 48 48 48 48 63 63 63 63 73 73 73 73 84 84 84 84 94 94 94 94 103 103 103 103 114 114 114 114 112 112 112 112 120 120 120 120 130 130 130 130 140 140 140 140 129 129 129 129 131 131 131 131 127 127 127 127 127 127 127 127 123 123 123 123 122 122 122 122 106 106 106 106 89 89 89 89 87 87 87 87 82 82 82 82 77 77 77 77 77 77 77 77 82 82 82 82 74 74 74 74 74 74 74 74 72 72 72 72 76 76 76 76 71 71 71 71 73 73 73 73 82 82 82 82 77 77 77 77 73 73 73 73 66 66 66 66 67 67 67 67 58 58 58 58 61 61 61 61 65 65 65 65 69 69 69 69 83 83 83 83 93 93 93 93 94 94 94 94 93 93 93 93 90 90 90 90 88 88 88 88 84 84 84 84 92 92 92 92 88 88 88 88 93 93 93 93 83 83 83 83 78 78 78 78 89 89 89 89 95 95 95 95 101 101 101 101 106 106 106 106 105 105 105 105 94 94 94 94 93 93 93 93 88 88 88 88 92 92 92 92 92 92 92 92 105 105 105 105 103 103 103 103 106 106 106 106 105 105 105 105 87 87 87 87 71 71 71 71 61 61 61 61 56 56 56 56 61 61 61 61 72 72 72 72 81 81 81 81 85 85 85 85 98 98 98 98 102 102 102 102 102 102 102 102 106 106 106 106 114 114 114 114 116 116 116 116 118 118 118 118 121 121 121 121 124 124 124 124 125 125 125 125 125 125 125 125 121 121 121 121 124 124 124 124 124 124 124 124 119 119 119 119 110 110 110 110 103 103 103 103 100 100 100 100 89 89 89 89 92 92 92 92 80 80 80 80 75 75 75 75 80 80 80 80 71 71 71 71 75 75 75 75 66 66 66 66 64 64 64 64 61 61 61 61 63 63 63 63 0 0 0 0 0 0 0 0 0 0 0 0 0 0 0 0 0 0 0 0 0 0 0 0 0 0 0 0 0 0 0 0 0 0 0 0 0 0 0 0 0 0 0
41 41 41 41 41 41 41 41 48 48 48 48 61 61 61 61 73 73 73 73 58 58 58 58 40 40 40 40 37 37 37 37 37 37 37 37 48 48 48 48 63 63 63 63 73 73 73 73 84 84 84 84 94 94 94 94 103 103 103 103 114 114 114 114 112 112 112 112 120 120 120 120 130 130 130 130 140 140 140 140 129 129 129 129 131 131 131 131 127 127 127 127 127 127 127 127 123 123 123 123 122 122 122 122 106 106 106 106 89 89 89 89 87 87 87 87 82 82 82 82 77 77 77 77 77 77 77 77 82 82 82 82 74 74 74 74 74 74 74 74 72 72 72 72 76 76 76 76 71 71 71 71 73 73 73 73 82 82 82 82 77 77 77 77 73 73 73 73 66 66 66 66 67 67 67 67 58 58 58 58 61 61 61 61 65 65 65 65 69 69 69 69 83 83 83 83 93 93 93 93 94 94 94 94 93 93 93 93 90 90 90 90 88 88 88 88 84 84 84 84 92 92 92 92 88 88 88 88 93 93 93 93 83 83 83 83 78 78 78 78 89 89 89 89 95 95 95 95 101 101 101 101 106 106 106 106 105 105 105 105 94 94 94 94 93 93 93 93 88 88 88 88 92 92 92 92 92 92 92 92 105 105 105 105 103 103 103 103 106 106 106 106 105 105 105 105 87 87 87 87 71 71 71 71 61 61 61 61 56 56 56 56 61 61 61 61 72 72 72 72 81 81 81 81 85 85 85 85 98 98 98 98 102 102 102 102 102 102 102 102 106 106 106 106 114 114 114 114 116 116 116 116 118 118 118 118 121 121 121 121 124 124 124 124 125 125 125 125 125 125 125 125 121 121 121 121 124 124 124 124 124 124 124 124 119 119 119 119 110 110 110 110 103 103 103 103 100 100 100 100 89 89 89 89 92 92 92 92 80 80 80 80 75 75 75 75 80 80 80 80 71 71 71 71 75 75 75 75 66 66 66 66 64 64 64 64 61 61 61 61 63 63 63 63 0 0 0 0 0 0 0 0 0 0 0 0 0 0 0 0 0 0 0 0 0 0 0 0 0 0 0 0 0 0 0 0 0 0 0 0 0 0 0 0 0 0 0
42 42 42 42 43 43 43 43 55 55 55 55 66 66 66 66 70 70 70 70 58 58 58 58 41 41 41 41 40 40 40 40 39 39 39 39 47 47 47 47 69 69 69 69 91 91 91 91 99 99 99 99 103 103 103 103 107 107 107 107 107 107 107 107 112 112 112 112 117 117 117 117 128 128 128 128 140 140 140 140 133 133 133 133 124 124 124 124 122 122 122 122 115 115 115 115 114 114 114 114 115 115 115 115 103 103 103 103 94 94 94 94 86 86 86 86 81 81 81 81 82 82 82 82 82 82 82 82 86 86 86 86 83 83 83 83 78 78 78 78 73 73 73 73 74 74 74 74 73 73 73 73 66 66 66 66 76 76 76 76 72 72 72 72 69 69 69 69 67 67 67 67 63 63 63 63 60 60 60 60 58 58 58 58 74 74 74 74 72 72 72 72 87 87 87 87 96 96 96 96 94 94 94 94 96 96 96 96 97 97 97 97 96 96 96 96 96 96 96 96 95 95 95 95 97 97 97 97 100 100 100 100 85 85 85 85 85 85 85 85 95 95 95 95 100 100 100 100 106 106 106 106 106 106 106 106 101 101 101 101 97 97 97 97 93 93 93 93 89 89 89 89 93 93 93 93 90 90 90 90 106 106 106 106 100 100 100 100 102 102 102 102 97 97 97 97 79 79 79 79 71 71 71 71 57 57 57 57 57 57 57 57 63 63 63 63 74 74 74 74 87 87 87 87 90 90 90 90 102 102 102 102 109 109 109 109 109 109 109 109 116 116 116 116 126 126 126 126 128 128 128 128 131 131 131 131 140 140 140 140 134 134 134 134 137 137 137 137 131 131 131 131 130 130 130 130 136 136 136 136 132 132 132 132 123 123 123 123 114 114 114 114 105 105 105 105 103 103 103 103 99 99 99 99 93 93 93 93 88 88 88 88 85 85 85 85 89 89 89 89 76 76 76 76 71 71 71 71 67 67 67 67 65 65 65 65 62 62 62 62 63 63 63 63 0 0 0 0 0 0 0 0 0 0 0 0 0 0 0 0 0 0 0 0 0 0 0 0 0 0 0 0 0 0 0 0 0 0 0 0 0 0 0 0 0 0 0
42 42 42 42 43 43 43 43 55 55 55 55 66 66 66 66 70 70 70 70 58 58 58 58 41 41 41 41 40 40 40 40 39 39 39 39 47 47 47 47 69 69 69 69 91 91 91 91 99 99 99 99 103 103 103 103 107 107 107 107 107 107 107 107 112 112 112 112 117 117 117 117 128 128 128 128 140 140 140 140 133 133 133 133 124 124 124 124 122 122 122 122 115 115 115 115 114 114 114 114 115 115 115 115 103 103 103 103 94 94 94 94 86 86 86 86 81 81 81 81 82 82 82 82 82 82 82 82 86 86 86 86 83 83 83 83 78 78 78 78 73 73 73 73 74 74 74 74 73 73 73 73 66 66 66 66 76 76 76 76 72 72 72 72 69 69 69 69 67 67 67 67 63 63 63 63 60 60 60 60 58 58 58 58 74 74 74 74 72 72 72 72 87 87 87 87 96 96 96 96 94 94 94 94 96 96 96 96 97 97 97 97 96 96 96 96 96 96 96 96 95 95 95 95 97 97 97 97 100 100 100 100 85 85 85 85 85 85 85 85 95 95 95 95 100 100 100 100 106 106 106 106 106 106 106 106 101 101 101 101 97 97 97 97 93 93 93 93 89 89 89 89 93 93 93 93 90 90 90 90 106 106 106 106 100 100 100 100 102 102 102 102 97 97 97 97 79 79 79 79 71 71 71 71 57 57 57 57 57 57 57 57 63 63 63 63 74 74 74 74 87 87 87 87 90 90 90 90 102 102 102 102 109 109 109 109 109 109 109 109 116 116 116 116 126 126 126 126 128 128 128 128 131 131 131 131 140 140 140 140 134 134 134 134 137 137 137 137 131 131 131 131 130 130 130 130 136 136 136 136 132 132 132 132 123 123 123 123 114 114 114 114 105 105 105 105 103 103 103 103 99 99 99 99 93 93 93 93 88 88 88 88 85 85 85 85 89 89 89 89 76 76 76 76 71 71 71 71 67 67 67 67 65 65 65 65 62 62 62 62 63 63 63 63 0 0 0 0 0 0 0 0 0 0 0 0 0 0 0 0 0 0 0 0 0 0 0 0 0 0 0 0 0 0 0 0 0 0 0 0 0 0 0 0 0 0 0
42 42 42 42 43 43 43 43 55 55 55 55 66 66 66 66 70 70 70 70 58 58 58 58 41 41 41 41 40 40 40 40 39 39 39 39 47 47 47 47 69 69 69 69 91 91 91 91 99 99 99 99 103 103 103 103 107 107 107 107 107 107 107 107 112 112 112 112 117 117 117 117 128 128 128 128 140 140 140 140 133 133 133 133 124 124 124 124 122 122 122 122 115 115 115 115 114 114 114 114 115 115 115 115 103 103 103 103 94 94 94 94 86 86 86 86 81 81 81 81 82 82 82 82 82 82 82 82 86 86 86 86 83 83 83 83 78 78 78 78 73 73 73 73 74 74 74 74 73 73 73 73 66 66 66 66 76 76 76 76 72 72 72 72 69 69 69 69 67 67 67 67 63 63 63 63 60 60 60 60 58 58 58 58 74 74 74 74 72 72 72 72 87 87 87 87 96 96 96 96 94 94 94 94 96 96 96 96 97 97 97 97 96 96 96 96 96 96 96 96 95 95 95 95 97 97 97 97 100 100 100 100 85 85 85 85 85 85 85 85 95 95 95 95 100 100 100 100 106 106 106 106 106 106 106 106 101 101 101 101 97 97 97 97 93 93 93 93 89 89 89 89 93 93 93 93 90 90 90 90 106 106 106 106 100 100 100 100 102 102 102 102 97 97 97 97 79 79 79 79 71 71 71 71 57 57 57 57 57 57 57 57 63 63 63 63 74 74 74 74 87 87 87 87 90 90 90 90 102 102 102 102 109 109 109 109 109 109 109 109 116 116 116 116 126 126 126 126 128 128 128 128 131 131 131 131 140 140 140 140 134 134 134 134 137 137 137 137 131 131 131 131 130 130 130 130 136 136 136 136 132 132 132 132 123 123 123 123 114 114 114 114 105 105 105 105 103 103 103 103 99 99 99 99 93 93 93 93 88 88 88 88 85 85 85 85 89 89 89 89 76 76 76 76 71 71 71 71 67 67 67 67 65 65 65 65 62 62 62 62 63 63 63 63 0 0 0 0 0 0 0 0 0 0 0 0 0 0 0 0 0 0 0 0 0 0 0 0 0 0 0 0 0 0 0 0 0 0 0 0 0 0 0 0 0 0 0
42 42 42 42 43 43 43 43 55 55 55 55 66 66 66 66 70 70 70 70 58 58 58 58 41 41 41 41 40 40 40 40 39 39 39 39 47 47 47 47 69 69 69 69 91 91 91 91 99 99 99 99 103 103 103 103 107 107 107 107 107 107 107 107 112 112 112 112 117 117 117 117 128 128 128 128 140 140 140 140 133 133 133 133 124 124 124 124 122 122 122 122 115 115 115 115 114 114 114 114 115 115 115 115 103 103 103 103 94 94 94 94 86 86 86 86 81 81 81 81 82 82 82 82 82 82 82 82 86 86 86 86 83 83 83 83 78 78 78 78 73 73 73 73 74 74 74 74 73 73 73 73 66 66 66 66 76 76 76 76 72 72 72 72 69 69 69 69 67 67 67 67 63 63 63 63 60 60 60 60 58 58 58 58 74 74 74 74 72 72 72 72 87 87 87 87 96 96 96 96 94 94 94 94 96 96 96 96 97 97 97 97 96 96 96 96 96 96 96 96 95 95 95 95 97 97 97 97 100 100 100 100 85 85 85 85 85 85 85 85 95 95 95 95 100 100 100 100 106 106 106 106 106 106 106 106 101 101 101 101 97 97 97 97 93 93 93 93 89 89 89 89 93 93 93 93 90 90 90 90 106 106 106 106 100 100 100 100 102 102 102 102 97 97 97 97 79 79 79 79 71 71 71 71 57 57 57 57 57 57 57 57 63 63 63 63 74 74 74 74 87 87 87 87 90 90 90 90 102 102 102 102 109 109 109 109 109 109 109 109 116 116 116 116 126 126 126 126 128 128 128 128 131 131 131 131 140 140 140 140 134 134 134 134 137 137 137 137 131 131 131 131 130 130 130 130 136 136 136 136 132 132 132 132 123 123 123 123 114 114 114 114 105 105 105 105 103 103 103 103 99 99 99 99 93 93 93 93 88 88 88 88 85 85 85 85 89 89 89 89 76 76 76 76 71 71 71 71 67 67 67 67 65 65 65 65 62 62 62 62 63 63 63 63 0 0 0 0 0 0 0 0 0 0 0 0 0 0 0 0 0 0 0 0 0 0 0 0 0 0 0 0 0 0 0 0 0 0 0 0 0 0 0 0 0 0 0
41 41 41 41 48 48 48 48 65 65 65 65 82 82 82 82 74 74 74 74 50 50 50 50 40 40 40 40 42 42 42 42 40 40 40 40 52 52 52 52 74 74 74 74 89 89 89 89 106 106 106 106 114 114 114 114 105 105 105 105 113 113 113 113 106 106 106 106 115 115 115 115 126 126 126 126 128 128 128 128 123 123 123 123 115 115 115 115 110 110 110 110 107 107 107 107 108 108 108 108 103 103 103 103 95 95 95 95 90 90 90 90 84 84 84 84 86 86 86 86 87 87 87 87 83 83 83 83 84 84 84 84 89 89 89 89 85 85 85 85 80 80 80 80 87 87 87 87 87 87 87 87 76 76 76 76 77 77 77 77 86 86 86 86 78 78 78 78 69 69 69 69 67 67 67 67 68 68 68 68 67 67 67 67 85 85 85 85 88 88 88 88 83 83 83 83 89 89 89 89 95 95 95 95 95 95 95 95 94 94 94 94 90 90 90 90 99 99 99 99 107 107 107 107 106 106 106 106 108 108 108 108 98 98 98 98 101 101 101 101 101 101 101 101 104 104 104 104 113 113 113 113 107 107 107 107 101 101 101 101 97 97 97 97 90 90 90 90 89 89 89 89 94 94 94 94 79 79 79 79 99 99 99 99 83 83 83 83 89 89 89 89 87 87 87 87 77 77 77 77 70 70 70 70 53 53 53 53 58 58 58 58 63 63 63 63 83 83 83 83 94 94 94 94 102 102 102 102 113 113 113 113 111 111 111 111 106 106 106 106 117 117 117 117 127 127 127 127 124 124 124 124 136 136 136 136 145 145 145 145 139 139 139 139 145 145 145 145 139 139 139 139 134 134 134 134 143 143 143 143 141 141 141 141 128 128 128 128 116 116 116 116 106 106 106 106 105 105 105 105 104 104 104 104 96 96 96 96 89 89 89 89 85 85 85 85 89 89 89 89 96 96 96 96 84 84 84 84 75 75 75 75 77 77 77 77 76 76 76 76 76 76 76 76 0 0 0 0 0 0 0 0 0 0 0 0 0 0 0 0 0 0 0 0 0 0 0 0 0 0 0 0 0 0 0 0 0 0 0 0 0 0 0 0 0 0 0
41 41 41 41 48 48 48 48 65 65 65 65 82 82 82 82 74 74 74 74 50 50 50 50 40 40 40 40 42 42 42 42 40 40 40 40 52 52 52 52 74 74 74 74 89 89 89 89 106 106 106 106 114 114 114 114 105 105 105 105 113 113 113 113 106 106 106 106 115 115 115 115 126 126 126 126 128 128 128 128 123 123 123 123 115 115 115 115 110 110 110 110 107 107 107 107 108 108 108 108 103 103 103 103 95 95 95 95 90 90 90 90 84 84 84 84 86 86 86 86 87 87 87 87 83 83 83 83 84 84 84 84 89 89 89 89 85 85 85 85 80 80 80 80 87 87 87 87 87 87 87 87 76 76 76 76 77 77 77 77 86 86 86 86 78 78 78 78 69 69 69 69 67 67 67 67 68 68 68 68 67 67 67 67 85 85 85 85 88 88 88 88 83 83 83 83 89 89 89 89 95 95 95 95 95 95 95 95 94 94 94 94 90 90 90 90 99 99 99 99 107 107 107 107 106 106 106 106 108 108 108 108 98 98 98 98 101 101 101 101 101 101 101 101 104 104 104 104 113 113 113 113 107 107 107 107 101 101 101 101 97 97 97 97 90 90 90 90 89 89 89 89 94 94 94 94 79 79 79 79 99 99 99 99 83 83 83 83 89 89 89 89 87 87 87 87 77 77 77 77 70 70 70 70 53 53 53 53 58 58 58 58 63 63 63 63 83 83 83 83 94 94 94 94 102 102 102 102 113 113 113 113 111 111 111 111 106 106 106 106 117 117 117 117 127 127 127 127 124 124 124 124 136 136 136 136 145 145 145 145 139 139 139 139 145 145 145 145 139 139 139 139 134 134 134 134 143 143 143 143 141 141 141 141 128 128 128 128 116 116 116 116 106 106 106 106 105 105 105 105 104 104 104 104 96 96 96 96 89 89 89 89 85 85 85 85 89 89 89 89 96 96 96 96 84 84 84 84 75 75 75 75 77 77 77 77 76 76 76 76 76 76 76 76 0 0 0 0 0 0 0 0 0 0 0 0 0 0 0 0 0 0 0 0 0 0 0 0 0 0 0 0 0 0 0 0 0 0 0 0 0 0 0 0 0 0 0
41 41 41 41 48 48 48 48 65 65 65 65 82 82 82 82 74 74 74 74 50 50 50 50 40 40 40 40 42 42 42 42 40 40 40 40 52 52 52 52 74 74 74 74 89 89 89 89 106 106 106 106 114 114 114 114 105 105 105 105 113 113 113 113 106 106 106 106 115 115 115 115 126 126 126 126 128 128 128 128 123 123 123 123 115 115 115 115 110 110 110 110 107 107 107 107 108 108 108 108 103 103 103 103 95 95 95 95 90 90 90 90 84 84 84 84 86 86 86 86 87 87 87 87 83 83 83 83 84 84 84 84 89 89 89 89 85 85 85 85 80 80 80 80 87 87 87 87 87 87 87 87 76 76 76 76 77 77 77 77 86 86 86 86 78 78 78 78 69 69 69 69 67 67 67 67 68 68 68 68 67 67 67 67 85 85 85 85 88 88 88 88 83 83 83 83 89 89 89 89 95 95 95 95 95 95 95 95 94 94 94 94 90 90 90 90 99 99 99 99 107 107 107 107 106 106 106 106 108 108 108 108 98 98 98 98 101 101 101 101 101 101 101 101 104 104 104 104 113 113 113 113 107 107 107 107 101 101 101 101 97 97 97 97 90 90 90 90 89 89 89 89 94 94 94 94 79 79 79 79 99 99 99 99 83 83 83 83 89 89 89 89 87 87 87 87 77 77 77 77 70 70 70 70 53 53 53 53 58 58 58 58 63 63 63 63 83 83 83 83 94 94 94 94 102 102 102 102 113 113 113 113 111 111 111 111 106 106 106 106 117 117 117 117 127 127 127 127 124 124 124 124 136 136 136 136 145 145 145 145 139 139 139 139 145 145 145 145 139 139 139 139 134 134 134 134 143 143 143 143 141 141 141 141 128 128 128 128 116 116 116 116 106 106 106 106 105 105 105 105 104 104 104 104 96 96 96 96 89 89 89 89 85 85 85 85 89 89 89 89 96 96 96 96 84 84 84 84 75 75 75 75 77 77 77 77 76 76 76 76 76 76 76 76 0 0 0 0 0 0 0 0 0 0 0 0 0 0 0 0 0 0 0 0 0 0 0 0 0 0 0 0 0 0 0 0 0 0 0 0 0 0 0 0 0 0 0
41 41 41 41 48 48 48 48 65 65 65 65 82 82 82 82 74 74 74 74 50 50 50 50 40 40 40 40 42 42 42 42 40 40 40 40 52 52 52 52 74 74 74 74 89 89 89 89 106 106 106 106 114 114 114 114 105 105 105 105 113 113 113 113 106 106 106 106 115 115 115 115 126 126 126 126 128 128 128 128 123 123 123 123 115 115 115 115 110 110 110 110 107 107 107 107 108 108 108 108 103 103 103 103 95 95 95 95 90 90 90 90 84 84 84 84 86 86 86 86 87 87 87 87 83 83 83 83 84 84 84 84 89 89 89 89 85 85 85 85 80 80 80 80 87 87 87 87 87 87 87 87 76 76 76 76 77 77 77 77 86 86 86 86 78 78 78 78 69 69 69 69 67 67 67 67 68 68 68 68 67 67 67 67 85 85 85 85 88 88 88 88 83 83 83 83 89 89 89 89 95 95 95 95 95 95 95 95 94 94 94 94 90 90 90 90 99 99 99 99 107 107 107 107 106 106 106 106 108 108 108 108 98 98 98 98 101 101 101 101 101 101 101 101 104 104 104 104 113 113 113 113 107 107 107 107 101 101 101 101 97 97 97 97 90 90 90 90 89 89 89 89 94 94 94 94 79 79 79 79 99 99 99 99 83 83 83 83 89 89 89 89 87 87 87 87 77 77 77 77 70 70 70 70 53 53 53 53 58 58 58 58 63 63 63 63 83 83 83 83 94 94 94 94 102 102 102 102 113 113 113 113 111 111 111 111 106 106 106 106 117 117 117 117 127 127 127 127 124 124 124 124 136 136 136 136 145 145 145 145 139 139 139 139 145 145 145 145 139 139 139 139 134 134 134 134 143 143 143 143 141 141 141 141 128 128 128 128 116 116 116 116 106 106 106 106 105 105 105 105 104 104 104 104 96 96 96 96 89 89 89 89 85 85 85 85 89 89 89 89 96 96 96 96 84 84 84 84 75 75 75 75 77 77 77 77 76 76 76 76 76 76 76 76 0 0 0 0 0 0 0 0 0 0 0 0 0 0 0 0 0 0 0 0 0 0 0 0 0 0 0 0 0 0 0 0 0 0 0 0 0 0 0 0 0 0 0
41 41 41 41 55 55 55 55 70 70 70 70 83 83 83 83 62 62 62 62 44 44 44 44 40 40 40 40 40 40 40 40 39 39 39 39 53 53 53 53 85 85 85 85 100 100 100 100 105 105 105 105 114 114 114 114 110 110 110 110 114 114 114 114 111 111 111 111 116 116 116 116 117 117 117 117 119 119 119 119 117 117 117 117 113 113 113 113 102 102 102 102 100 100 100 100 102 102 102 102 96 96 96 96 94 94 94 94 91 91 91 91 83 83 83 83 84 84 84 84 89 89 89 89 92 92 92 92 81 81 81 81 81 81 81 81 89 89 89 89 92 92 92 92 83 83 83 83 87 87 87 87 83 83 83 83 82 82 82 82 80 80 80 80 90 90 90 90 96 96 96 96 99 99 99 99 94 94 94 94 94 94 94 94 100 100 100 100 101 101 101 101 90 90 90 90 88 88 88 88 88 88 88 88 90 90 90 90 85 85 85 85 86 86 86 86 94 94 94 94 101 101 101 101 108 108 108 108 108 108 108 108 102 102 102 102 103 103 103 103 101 101 101 101 106 106 106 106 113 113 113 113 105 105 105 105 101 101 101 101 90 90 90 90 90 90 90 90 94 94 94 94 94 94 94 94 69 69 69 69 77 77 77 77 69 69 69 69 74 74 74 74 75 75 75 75 77 77 77 77 66 66 66 66 57 57 57 57 53 53 53 53 63 63 63 63 85 85 85 85 101 101 101 101 113 113 113 113 127 127 127 127 128 128 128 128 117 117 117 117 116 116 116 116 122 122 122 122 128 128 128 128 136 136 136 136 141 141 141 141 138 138 138 138 143 143 143 143 143 143 143 143 145 145 145 145 142 142 142 142 138 138 138 138 131 131 131 131 123 123 123 123 111 111 111 111 106 106 106 106 114 114 114 114 104 104 104 104 101 101 101 101 97 97 97 97 93 93 93 93 103 103 103 103 94 94 94 94 94 94 94 94 100 100 100 100 96 96 96 96 97 97 97 97 0 0 0 0 0 0 0 0 0 0 0 0 0 0 0 0 0 0 0 0 0 0 0 0 0 0 0 0 0 0 0 0 0 0 0 0 0 0 0 0 0 0 0
41 41 41 41 55 55 55 55 70 70 70 70 83 83 83 83 62 62 62 62 44 44 44 44 40 40 40 40 40 40 40 40 39 39 39 39 53 53 53 53 85 85 85 85 100 100 100 100 105 105 105 105 114 114 114 114 110 110 110 110 114 114 114 114 111 111 111 111 116 116 116 116 117 117 117 117 119 119 119 119 117 117 117 117 113 113 113 113 102 102 102 102 100 100 100 100 102 102 102 102 96 96 96 96 94 94 94 94 91 91 91 91 83 83 83 83 84 84 84 84 89 89 89 89 92 92 92 92 81 81 81 81 81 81 81 81 89 89 89 89 92 92 92 92 83 83 83 83 87 87 87 87 83 83 83 83 82 82 82 82 80 80 80 80 90 90 90 90 96 96 96 96 99 99 99 99 94 94 94 94 94 94 94 94 100 100 100 100 101 101 101 101 90 90 90 90 88 88 88 88 88 88 88 88 90 90 90 90 85 85 85 85 86 86 86 86 94 94 94 94 101 101 101 101 108 108 108 108 108 108 108 108 102 102 102 102 103 103 103 103 101 101 101 101 106 106 106 106 113 113 113 113 105 105 105 105 101 101 101 101 90 90 90 90 90 90 90 90 94 94 94 94 94 94 94 94 69 69 69 69 77 77 77 77 69 69 69 69 74 74 74 74 75 75 75 75 77 77 77 77 66 66 66 66 57 57 57 57 53 53 53 53 63 63 63 63 85 85 85 85 101 101 101 101 113 113 113 113 127 127 127 127 128 128 128 128 117 117 117 117 116 116 116 116 122 122 122 122 128 128 128 128 136 136 136 136 141 141 141 141 138 138 138 138 143 143 143 143 143 143 143 143 145 145 145 145 142 142 142 142 138 138 138 138 131 131 131 131 123 123 123 123 111 111 111 111 106 106 106 106 114 114 114 114 104 104 104 104 101 101 101 101 97 97 97 97 93 93 93 93 103 103 103 103 94 94 94 94 94 94 94 94 100 100 100 100 96 96 96 96 97 97 97 97 0 0 0 0 0 0 0 0 0 0 0 0 0 0 0 0 0 0 0 0 0 0 0 0 0 0 0 0 0 0 0 0 0 0 0 0 0 0 0 0 0 0 0
41 41 41 41 55 55 55 55 70 70 70 70 83 83 83 83 62 62 62 62 44 44 44 44 40 40 40 40 40 40 40 40 39 39 39 39 53 53 53 53 85 85 85 85 100 100 100 100 105 105 105 105 114 114 114 114 110 110 110 110 114 114 114 114 111 111 111 111 116 116 116 116 117 117 117 117 119 119 119 119 117 117 117 117 113 113 113 113 102 102 102 102 100 100 100 100 102 102 102 102 96 96 96 96 94 94 94 94 91 91 91 91 83 83 83 83 84 84 84 84 89 89 89 89 92 92 92 92 81 81 81 81 81 81 81 81 89 89 89 89 92 92 92 92 83 83 83 83 87 87 87 87 83 83 83 83 82 82 82 82 80 80 80 80 90 90 90 90 96 96 96 96 99 99 99 99 94 94 94 94 94 94 94 94 100 100 100 100 101 101 101 101 90 90 90 90 88 88 88 88 88 88 88 88 90 90 90 90 85 85 85 85 86 86 86 86 94 94 94 94 101 101 101 101 108 108 108 108 108 108 108 108 102 102 102 102 103 103 103 103 101 101 101 101 106 106 106 106 113 113 113 113 105 105 105 105 101 101 101 101 90 90 90 90 90 90 90 90 94 94 94 94 94 94 94 94 69 69 69 69 77 77 77 77 69 69 69 69 74 74 74 74 75 75 75 75 77 77 77 77 66 66 66 66 57 57 57 57 53 53 53 53 63 63 63 63 85 85 85 85 101 101 101 101 113 113 113 113 127 127 127 127 128 128 128 128 117 117 117 117 116 116 116 116 122 122 122 122 128 128 128 128 136 136 136 136 141 141 141 141 138 138 138 138 143 143 143 143 143 143 143 143 145 145 145 145 142 142 142 142 138 138 138 138 131 131 131 131 123 123 123 123 111 111 111 111 106 106 106 106 114 114 114 114 104 104 104 104 101 101 101 101 97 97 97 97 93 93 93 93 103 103 103 103 94 94 94 94 94 94 94 94 100 100 100 100 96 96 96 96 97 97 97 97 0 0 0 0 0 0 0 0 0 0 0 0 0 0 0 0 0 0 0 0 0 0 0 0 0 0 0 0 0 0 0 0 0 0 0 0 0 0 0 0 0 0 0
41 41 41 41 55 55 55 55 70 70 70 70 83 83 83 83 62 62 62 62 44 44 44 44 40 40 40 40 40 40 40 40 39 39 39 39 53 53 53 53 85 85 85 85 100 100 100 100 105 105 105 105 114 114 114 114 110 110 110 110 114 114 114 114 111 111 111 111 116 116 116 116 117 117 117 117 119 119 119 119 117 117 117 117 113 113 113 113 102 102 102 102 100 100 100 100 102 102 102 102 96 96 96 96 94 94 94 94 91 91 91 91 83 83 83 83 84 84 84 84 89 89 89 89 92 92 92 92 81 81 81 81 81 81 81 81 89 89 89 89 92 92 92 92 83 83 83 83 87 87 87 87 83 83 83 83 82 82 82 82 80 80 80 80 90 90 90 90 96 96 96 96 99 99 99 99 94 94 94 94 94 94 94 94 100 100 100 100 101 101 101 101 90 90 90 90 88 88 88 88 88 88 88 88 90 90 90 90 85 85 85 85 86 86 86 86 94 94 94 94 101 101 101 101 108 108 108 108 108 108 108 108 102 102 102 102 103 103 103 103 101 101 101 101 106 106 106 106 113 113 113 113 105 105 105 105 101 101 101 101 90 90 90 90 90 90 90 90 94 94 94 94 94 94 94 94 69 69 69 69 77 77 77 77 69 69 69 69 74 74 74 74 75 75 75 75 77 77 77 77 66 66 66 66 57 57 57 57 53 53 53 53 63 63 63 63 85 85 85 85 101 101 101 101 113 113 113 113 127 127 127 127 128 128 128 128 117 117 117 117 116 116 116 116 122 122 122 122 128 128 128 128 136 136 136 136 141 141 141 141 138 138 138 138 143 143 143 143 143 143 143 143 145 145 145 145 142 142 142 142 138 138 138 138 131 131 131 131 123 123 123 123 111 111 111 111 106 106 106 106 114 114 114 114 104 104 104 104 101 101 101 101 97 97 97 97 93 93 93 93 103 103 103 103 94 94 94 94 94 94 94 94 100 100 100 100 96 96 96 96 97 97 97 97 0 0 0 0 0 0 0 0 0 0 0 0 0 0 0 0 0 0 0 0 0 0 0 0 0 0 0 0 0 0 0 0 0 0 0 0 0 0 0 0 0 0 0
43 43 43 43 63 63 63 63 75 75 75 75 92 92 92 92 62 62 62 62 42 42 42 42 40 40 40 40 37 37 37 37 40 40 40 40 56 56 56 56 85 85 85 85 99 99 99 99 108 108 108 108 106 106 106 106 111 111 111 111 111 111 111 111 106 106 106 106 118 118 118 118 113 113 113 113 106 106 106 106 106 106 106 106 106 106 106 106 101 101 101 101 93 93 93 93 94 94 94 94 94 94 94 94 97 97 97 97 95 95 95 95 88 88 88 88 82 82 82 82 81 81 81 81 89 89 89 89 84 84 84 84 87 87 87 87 76 76 76 76 86 86 86 86 84 84 84 84 82 82 82 82 76 76 76 76 82 82 82 82 73 73 73 73 85 85 85 85 105 105 105 105 111 111 111 111 111 111 111 111 106 106 106 106 102 102 102 102 101 101 101 101 96 96 96 96 89 89 89 89 86 86 86 86 87 87 87 87 80 80 80 80 83 83 83 83 89 89 89 89 96 96 96 96 102 102 102 102 101 101 101 101 95 95 95 95 99 99 99 99 99 99 99 99 107 107 107 107 106 106 106 106 101 101 101 101 94 94 94 94 91 91 91 91 94 94 94 94 89 89 89 89 91 91 91 91 74 74 74 74 59 59 59 59 63 63 63 63 62 62 62 62 71 71 71 71 72 72 72 72 67 67 67 67 63 63 63 63 49 49 49 49 65 65 65 65 91 91 91 91 102 102 102 102 117 117 117 117 131 131 131 131 136 136 136 136 133 133 133 133 120 120 120 120 117 117 117 117 124 124 124 124 130 130 130 130 140 140 140 140 145 145 145 145 143 143 143 143 142 142 142 142 137 137 137 137 137 137 137 137 129 129 129 129 131 131 131 131 130 130 130 130 123 123 123 123 116 116 116 116 112 112 112 112 110 110 110 110 106 106 106 106 107 107 107 107 96 96 96 96 101 101 101 101 105 105 105 105 106 106 106 106 114 114 114 114 115 115 115 115 115 115 115 115 0 0 0 0 0 0 0 0 0 0 0 0 0 0 0 0 0 0 0 0 0 0 0 0 0 0 0 0 0 0 0 0 0 0 0 0 0 0 0 0 0 0 0
43 43 43 43 63 63 63 63 75 75 75 75 92 92 92 92 62 62 62 62 42 42 42 42 40 40 40 40 37 37 37 37 40 40 40 40 56 56 56 56 85 85 85 85 99 99 99 99 108 108 108 108 106 106 106 106 111 111 111 111 111 111 111 111 106 106 106 106 118 118 118 118 113 113 113 113 106 106 106 106 106 106 106 106 106 106 106 106 101 101 101 101 93 93 93 93 94 94 94 94 94 94 94 94 97 97 97 97 95 95 95 95 88 88 88 88 82 82 82 82 81 81 81 81 89 89 89 89 84 84 84 84 87 87 87 87 76 76 76 76 86 86 86 86 84 84 84 84 82 82 82 82 76 76 76 76 82 82 82 82 73 73 73 73 85 85 85 85 105 105 105 105 111 111 111 111 111 111 111 111 106 106 106 106 102 102 102 102 101 101 101 101 96 96 96 96 89 89 89 89 86 86 86 86 87 87 87 87 80 80 80 80 83 83 83 83 89 89 89 89 96 96 96 96 102 102 102 102 101 101 101 101 95 95 95 95 99 99 99 99 99 99 99 99 107 107 107 107 106 106 106 106 101 101 101 101 94 94 94 94 91 91 91 91 94 94 94 94 89 89 89 89 91 91 91 91 74 74 74 74 59 59 59 59 63 63 63 63 62 62 62 62 71 71 71 71 72 72 72 72 67 67 67 67 63 63 63 63 49 49 49 49 65 65 65 65 91 91 91 91 102 102 102 102 117 117 117 117 131 131 131 131 136 136 136 136 133 133 133 133 120 120 120 120 117 117 117 117 124 124 124 124 130 130 130 130 140 140 140 140 145 145 145 145 143 143 143 143 142 142 142 142 137 137 137 137 137 137 137 137 129 129 129 129 131 131 131 131 130 130 130 130 123 123 123 123 116 116 116 116 112 112 112 112 110 110 110 110 106 106 106 106 107 107 107 107 96 96 96 96 101 101 101 101 105 105 105 105 106 106 106 106 114 114 114 114 115 115 115 115 115 115 115 115 0 0 0 0 0 0 0 0 0 0 0 0 0 0 0 0 0 0 0 0 0 0 0 0 0 0 0 0 0 0 0 0 0 0 0 0 0 0 0 0 0 0 0
43 43 43 43 63 63 63 63 75 75 75 75 92 92 92 92 62 62 62 62 42 42 42 42 40 40 40 40 37 37 37 37 40 40 40 40 56 56 56 56 85 85 85 85 99 99 99 99 108 108 108 108 106 106 106 106 111 111 111 111 111 111 111 111 106 106 106 106 118 118 118 118 113 113 113 113 106 106 106 106 106 106 106 106 106 106 106 106 101 101 101 101 93 93 93 93 94 94 94 94 94 94 94 94 97 97 97 97 95 95 95 95 88 88 88 88 82 82 82 82 81 81 81 81 89 89 89 89 84 84 84 84 87 87 87 87 76 76 76 76 86 86 86 86 84 84 84 84 82 82 82 82 76 76 76 76 82 82 82 82 73 73 73 73 85 85 85 85 105 105 105 105 111 111 111 111 111 111 111 111 106 106 106 106 102 102 102 102 101 101 101 101 96 96 96 96 89 89 89 89 86 86 86 86 87 87 87 87 80 80 80 80 83 83 83 83 89 89 89 89 96 96 96 96 102 102 102 102 101 101 101 101 95 95 95 95 99 99 99 99 99 99 99 99 107 107 107 107 106 106 106 106 101 101 101 101 94 94 94 94 91 91 91 91 94 94 94 94 89 89 89 89 91 91 91 91 74 74 74 74 59 59 59 59 63 63 63 63 62 62 62 62 71 71 71 71 72 72 72 72 67 67 67 67 63 63 63 63 49 49 49 49 65 65 65 65 91 91 91 91 102 102 102 102 117 117 117 117 131 131 131 131 136 136 136 136 133 133 133 133 120 120 120 120 117 117 117 117 124 124 124 124 130 130 130 130 140 140 140 140 145 145 145 145 143 143 143 143 142 142 142 142 137 137 137 137 137 137 137 137 129 129 129 129 131 131 131 131 130 130 130 130 123 123 123 123 116 116 116 116 112 112 112 112 110 110 110 110 106 106 106 106 107 107 107 107 96 96 96 96 101 101 101 101 105 105 105 105 106 106 106 106 114 114 114 114 115 115 115 115 115 115 115 115 0 0 0 0 0 0 0 0 0 0 0 0 0 0 0 0 0 0 0 0 0 0 0 0 0 0 0 0 0 0 0 0 0 0 0 0 0 0 0 0 0 0 0
43 43 43 43 63 63 63 63 75 75 75 75 92 92 92 92 62 62 62 62 42 42 42 42 40 40 40 40 37 37 37 37 40 40 40 40 56 56 56 56 85 85 85 85 99 99 99 99 108 108 108 108 106 106 106 106 111 111 111 111 111 111 111 111 106 106 106 106 118 118 118 118 113 113 113 113 106 106 106 106 106 106 106 106 106 106 106 106 101 101 101 101 93 93 93 93 94 94 94 94 94 94 94 94 97 97 97 97 95 95 95 95 88 88 88 88 82 82 82 82 81 81 81 81 89 89 89 89 84 84 84 84 87 87 87 87 76 76 76 76 86 86 86 86 84 84 84 84 82 82 82 82 76 76 76 76 82 82 82 82 73 73 73 73 85 85 85 85 105 105 105 105 111 111 111 111 111 111 111 111 106 106 106 106 102 102 102 102 101 101 101 101 96 96 96 96 89 89 89 89 86 86 86 86 87 87 87 87 80 80 80 80 83 83 83 83 89 89 89 89 96 96 96 96 102 102 102 102 101 101 101 101 95 95 95 95 99 99 99 99 99 99 99 99 107 107 107 107 106 106 106 106 101 101 101 101 94 94 94 94 91 91 91 91 94 94 94 94 89 89 89 89 91 91 91 91 74 74 74 74 59 59 59 59 63 63 63 63 62 62 62 62 71 71 71 71 72 72 72 72 67 67 67 67 63 63 63 63 49 49 49 49 65 65 65 65 91 91 91 91 102 102 102 102 117 117 117 117 131 131 131 131 136 136 136 136 133 133 133 133 120 120 120 120 117 117 117 117 124 124 124 124 130 130 130 130 140 140 140 140 145 145 145 145 143 143 143 143 142 142 142 142 137 137 137 137 137 137 137 137 129 129 129 129 131 131 131 131 130 130 130 130 123 123 123 123 116 116 116 116 112 112 112 112 110 110 110 110 106 106 106 106 107 107 107 107 96 96 96 96 101 101 101 101 105 105 105 105 106 106 106 106 114 114 114 114 115 115 115 115 115 115 115 115 0 0 0 0 0 0 0 0 0 0 0 0 0 0 0 0 0 0 0 0 0 0 0 0 0 0 0 0 0 0 0 0 0 0 0 0 0 0 0 0 0 0 0
47 47 47 47 68 68 68 68 80 80 80 80 90 90 90 90 71 71 71 71 45 45 45 45 37 37 37 37 37 37 37 37 40 40 40 40 49 49 49 49 82 82 82 82 99 99 99 99 104 104 104 104 108 108 108 108 103 103 103 103 104 104 104 104 106 106 106 106 110 110 110 110 109 109 109 109 101 101 101 101 100 100 100 100 101 101 101 101 102 102 102 102 96 96 96 96 89 89 89 89 93 93 93 93 96 96 96 96 92 92 92 92 76 76 76 76 74 74 74 74 75 75 75 75 86 86 86 86 88 88 88 88 89 89 89 89 84 84 84 84 76 76 76 76 77 77 77 77 79 79 79 79 73 73 73 73 71 71 71 71 68 68 68 68 80 80 80 80 91 91 91 91 109 109 109 109 114 114 114 114 110 110 110 110 101 101 101 101 90 90 90 90 94 94 94 94 91 91 91 91 86 86 86 86 85 85 85 85 82 82 82 82 79 79 79 79 85 85 85 85 94 94 94 94 109 109 109 109 101 101 101 101 98 98 98 98 90 90 90 90 94 94 94 94 104 104 104 104 105 105 105 105 101 101 101 101 94 94 94 94 87 87 87 87 84 84 84 84 72 72 72 72 81 81 81 81 75 75 75 75 63 63 63 63 58 58 58 58 57 57 57 57 73 73 73 73 66 66 66 66 64 64 64 64 68 68 68 68 50 50 50 50 63 63 63 63 89 89 89 89 103 103 103 103 125 125 125 125 132 132 132 132 131 131 131 131 131 131 131 131 128 128 128 128 124 124 124 124 124 124 124 124 128 128 128 128 129 129 129 129 141 141 141 141 139 139 139 139 129 129 129 129 127 127 127 127 130 130 130 130 136 136 136 136 128 128 128 128 133 133 133 133 128 128 128 128 125 125 125 125 124 124 124 124 123 123 123 123 117 117 117 117 115 115 115 115 105 105 105 105 110 110 110 110 115 115 115 115 117 117 117 117 126 126 126 126 122 122 122 122 116 116 116 116 0 0 0 0 0 0 0 0 0 0 0 0 0 0 0 0 0 0 0 0 0 0 0 0 0 0 0 0 0 0 0 0 0 0 0 0 0 0 0 0 0 0 0
47 47 47 47 68 68 68 68 80 80 80 80 90 90 90 90 71 71 71 71 45 45 45 45 37 37 37 37 37 37 37 37 40 40 40 40 49 49 49 49 82 82 82 82 99 99 99 99 104 104 104 104 108 108 108 108 103 103 103 103 104 104 104 104 106 106 106 106 110 110 110 110 109 109 109 109 101 101 101 101 100 100 100 100 101 101 101 101 102 102 102 102 96 96 96 96 89 89 89 89 93 93 93 93 96 96 96 96 92 92 92 92 76 76 76 76 74 74 74 74 75 75 75 75 86 86 86 86 88 88 88 88 89 89 89 89 84 84 84 84 76 76 76 76 77 77 77 77 79 79 79 79 73 73 73 73 71 71 71 71 68 68 68 68 80 80 80 80 91 91 91 91 109 109 109 109 114 114 114 114 110 110 110 110 101 101 101 101 90 90 90 90 94 94 94 94 91 91 91 91 86 86 86 86 85 85 85 85 82 82 82 82 79 79 79 79 85 85 85 85 94 94 94 94 109 109 109 109 101 101 101 101 98 98 98 98 90 90 90 90 94 94 94 94 104 104 104 104 105 105 105 105 101 101 101 101 94 94 94 94 87 87 87 87 84 84 84 84 72 72 72 72 81 81 81 81 75 75 75 75 63 63 63 63 58 58 58 58 57 57 57 57 73 73 73 73 66 66 66 66 64 64 64 64 68 68 68 68 50 50 50 50 63 63 63 63 89 89 89 89 103 103 103 103 125 125 125 125 132 132 132 132 131 131 131 131 131 131 131 131 128 128 128 128 124 124 124 124 124 124 124 124 128 128 128 128 129 129 129 129 141 141 141 141 139 139 139 139 129 129 129 129 127 127 127 127 130 130 130 130 136 136 136 136 128 128 128 128 133 133 133 133 128 128 128 128 125 125 125 125 124 124 124 124 123 123 123 123 117 117 117 117 115 115 115 115 105 105 105 105 110 110 110 110 115 115 115 115 117 117 117 117 126 126 126 126 122 122 122 122 116 116 116 116 0 0 0 0 0 0 0 0 0 0 0 0 0 0 0 0 0 0 0 0 0 0 0 0 0 0 0 0 0 0 0 0 0 0 0 0 0 0 0 0 0 0 0
47 47 47 47 68 68 68 68 80 80 80 80 90 90 90 90 71 71 71 71 45 45 45 45 37 37 37 37 37 37 37 37 40 40 40 40 49 49 49 49 82 82 82 82 99 99 99 99 104 104 104 104 108 108 108 108 103 103 103 103 104 104 104 104 106 106 106 106 110 110 110 110 109 109 109 109 101 101 101 101 100 100 100 100 101 101 101 101 102 102 102 102 96 96 96 96 89 89 89 89 93 93 93 93 96 96 96 96 92 92 92 92 76 76 76 76 74 74 74 74 75 75 75 75 86 86 86 86 88 88 88 88 89 89 89 89 84 84 84 84 76 76 76 76 77 77 77 77 79 79 79 79 73 73 73 73 71 71 71 71 68 68 68 68 80 80 80 80 91 91 91 91 109 109 109 109 114 114 114 114 110 110 110 110 101 101 101 101 90 90 90 90 94 94 94 94 91 91 91 91 86 86 86 86 85 85 85 85 82 82 82 82 79 79 79 79 85 85 85 85 94 94 94 94 109 109 109 109 101 101 101 101 98 98 98 98 90 90 90 90 94 94 94 94 104 104 104 104 105 105 105 105 101 101 101 101 94 94 94 94 87 87 87 87 84 84 84 84 72 72 72 72 81 81 81 81 75 75 75 75 63 63 63 63 58 58 58 58 57 57 57 57 73 73 73 73 66 66 66 66 64 64 64 64 68 68 68 68 50 50 50 50 63 63 63 63 89 89 89 89 103 103 103 103 125 125 125 125 132 132 132 132 131 131 131 131 131 131 131 131 128 128 128 128 124 124 124 124 124 124 124 124 128 128 128 128 129 129 129 129 141 141 141 141 139 139 139 139 129 129 129 129 127 127 127 127 130 130 130 130 136 136 136 136 128 128 128 128 133 133 133 133 128 128 128 128 125 125 125 125 124 124 124 124 123 123 123 123 117 117 117 117 115 115 115 115 105 105 105 105 110 110 110 110 115 115 115 115 117 117 117 117 126 126 126 126 122 122 122 122 116 116 116 116 0 0 0 0 0 0 0 0 0 0 0 0 0 0 0 0 0 0 0 0 0 0 0 0 0 0 0 0 0 0 0 0 0 0 0 0 0 0 0 0 0 0 0
47 47 47 47 68 68 68 68 80 80 80 80 90 90 90 90 71 71 71 71 45 45 45 45 37 37 37 37 37 37 37 37 40 40 40 40 49 49 49 49 82 82 82 82 99 99 99 99 104 104 104 104 108 108 108 108 103 103 103 103 104 104 104 104 106 106 106 106 110 110 110 110 109 109 109 109 101 101 101 101 100 100 100 100 101 101 101 101 102 102 102 102 96 96 96 96 89 89 89 89 93 93 93 93 96 96 96 96 92 92 92 92 76 76 76 76 74 74 74 74 75 75 75 75 86 86 86 86 88 88 88 88 89 89 89 89 84 84 84 84 76 76 76 76 77 77 77 77 79 79 79 79 73 73 73 73 71 71 71 71 68 68 68 68 80 80 80 80 91 91 91 91 109 109 109 109 114 114 114 114 110 110 110 110 101 101 101 101 90 90 90 90 94 94 94 94 91 91 91 91 86 86 86 86 85 85 85 85 82 82 82 82 79 79 79 79 85 85 85 85 94 94 94 94 109 109 109 109 101 101 101 101 98 98 98 98 90 90 90 90 94 94 94 94 104 104 104 104 105 105 105 105 101 101 101 101 94 94 94 94 87 87 87 87 84 84 84 84 72 72 72 72 81 81 81 81 75 75 75 75 63 63 63 63 58 58 58 58 57 57 57 57 73 73 73 73 66 66 66 66 64 64 64 64 68 68 68 68 50 50 50 50 63 63 63 63 89 89 89 89 103 103 103 103 125 125 125 125 132 132 132 132 131 131 131 131 131 131 131 131 128 128 128 128 124 124 124 124 124 124 124 124 128 128 128 128 129 129 129 129 141 141 141 141 139 139 139 139 129 129 129 129 127 127 127 127 130 130 130 130 136 136 136 136 128 128 128 128 133 133 133 133 128 128 128 128 125 125 125 125 124 124 124 124 123 123 123 123 117 117 117 117 115 115 115 115 105 105 105 105 110 110 110 110 115 115 115 115 117 117 117 117 126 126 126 126 122 122 122 122 116 116 116 116 0 0 0 0 0 0 0 0 0 0 0 0 0 0 0 0 0 0 0 0 0 0 0 0 0 0 0 0 0 0 0 0 0 0 0 0 0 0 0 0 0 0 0
49 49 49 49 77 77 77 77 86 86 86 86 89 89 89 89 74 74 74 74 58 58 58 58 41 41 41 41 38 38 38 38 38 38 38 38 43 43 43 43 74 74 74 74 89 89 89 89 101 101 101 101 94 94 94 94 93 93 93 93 93 93 93 93 103 103 103 103 109 109 109 109 100 100 100 100 89 89 89 89 93 93 93 93 102 102 102 102 114 114 114 114 106 106 106 106 88 88 88 88 80 80 80 80 80 80 80 80 71 71 71 71 84 84 84 84 90 90 90 90 82 82 82 82 76 76 76 76 87 87 87 87 94 94 94 94 85 85 85 85 77 77 77 77 75 75 75 75 71 71 71 71 71 71 71 71 89 89 89 89 79 79 79 79 74 74 74 74 83 83 83 83 92 92 92 92 98 98 98 98 106 106 106 106 101 101 101 101 91 91 91 91 87 87 87 87 92 92 92 92 91 91 91 91 84 84 84 84 78 78 78 78 77 77 77 77 85 85 85 85 84 84 84 84 94 94 94 94 98 98 98 98 97 97 97 97 89 89 89 89 91 91 91 91 102 102 102 102 97 97 97 97 99 99 99 99 101 101 101 101 80 80 80 80 71 71 71 71 63 63 63 63 77 77 77 77 71 71 71 71 68 68 68 68 61 61 61 61 51 51 51 51 70 70 70 70 68 68 68 68 59 59 59 59 59 59 59 59 48 48 48 48 63 63 63 63 89 89 89 89 110 110 110 110 127 127 127 127 127 127 127 127 121 121 121 121 127 127 127 127 127 127 127 127 130 130 130 130 131 131 131 131 131 131 131 131 128 128 128 128 128 128 128 128 131 131 131 131 128 128 128 128 123 123 123 123 121 121 121 121 133 133 133 133 128 128 128 128 125 125 125 125 130 130 130 130 136 136 136 136 138 138 138 138 132 132 132 132 128 128 128 128 121 121 121 121 118 118 118 118 126 126 126 126 117 117 117 117 123 123 123 123 126 126 126 126 115 115 115 115 106 106 106 106 0 0 0 0 0 0 0 0 0 0 0 0 0 0 0 0 0 0 0 0 0 0 0 0 0 0 0 0 0 0 0 0 0 0 0 0 0 0 0 0 0 0 0
49 49 49 49 77 77 77 77 86 86 86 86 89 89 89 89 74 74 74 74 58 58 58 58 41 41 41 41 38 38 38 38 38 38 38 38 43 43 43 43 74 74 74 74 89 89 89 89 101 101 101 101 94 94 94 94 93 93 93 93 93 93 93 93 103 103 103 103 109 109 109 109 100 100 100 100 89 89 89 89 93 93 93 93 102 102 102 102 114 114 114 114 106 106 106 106 88 88 88 88 80 80 80 80 80 80 80 80 71 71 71 71 84 84 84 84 90 90 90 90 82 82 82 82 76 76 76 76 87 87 87 87 94 94 94 94 85 85 85 85 77 77 77 77 75 75 75 75 71 71 71 71 71 71 71 71 89 89 89 89 79 79 79 79 74 74 74 74 83 83 83 83 92 92 92 92 98 98 98 98 106 106 106 106 101 101 101 101 91 91 91 91 87 87 87 87 92 92 92 92 91 91 91 91 84 84 84 84 78 78 78 78 77 77 77 77 85 85 85 85 84 84 84 84 94 94 94 94 98 98 98 98 97 97 97 97 89 89 89 89 91 91 91 91 102 102 102 102 97 97 97 97 99 99 99 99 101 101 101 101 80 80 80 80 71 71 71 71 63 63 63 63 77 77 77 77 71 71 71 71 68 68 68 68 61 61 61 61 51 51 51 51 70 70 70 70 68 68 68 68 59 59 59 59 59 59 59 59 48 48 48 48 63 63 63 63 89 89 89 89 110 110 110 110 127 127 127 127 127 127 127 127 121 121 121 121 127 127 127 127 127 127 127 127 130 130 130 130 131 131 131 131 131 131 131 131 128 128 128 128 128 128 128 128 131 131 131 131 128 128 128 128 123 123 123 123 121 121 121 121 133 133 133 133 128 128 128 128 125 125 125 125 130 130 130 130 136 136 136 136 138 138 138 138 132 132 132 132 128 128 128 128 121 121 121 121 118 118 118 118 126 126 126 126 117 117 117 117 123 123 123 123 126 126 126 126 115 115 115 115 106 106 106 106 0 0 0 0 0 0 0 0 0 0 0 0 0 0 0 0 0 0 0 0 0 0 0 0 0 0 0 0 0 0 0 0 0 0 0 0 0 0 0 0 0 0 0
49 49 49 49 77 77 77 77 86 86 86 86 89 89 89 89 74 74 74 74 58 58 58 58 41 41 41 41 38 38 38 38 38 38 38 38 43 43 43 43 74 74 74 74 89 89 89 89 101 101 101 101 94 94 94 94 93 93 93 93 93 93 93 93 103 103 103 103 109 109 109 109 100 100 100 100 89 89 89 89 93 93 93 93 102 102 102 102 114 114 114 114 106 106 106 106 88 88 88 88 80 80 80 80 80 80 80 80 71 71 71 71 84 84 84 84 90 90 90 90 82 82 82 82 76 76 76 76 87 87 87 87 94 94 94 94 85 85 85 85 77 77 77 77 75 75 75 75 71 71 71 71 71 71 71 71 89 89 89 89 79 79 79 79 74 74 74 74 83 83 83 83 92 92 92 92 98 98 98 98 106 106 106 106 101 101 101 101 91 91 91 91 87 87 87 87 92 92 92 92 91 91 91 91 84 84 84 84 78 78 78 78 77 77 77 77 85 85 85 85 84 84 84 84 94 94 94 94 98 98 98 98 97 97 97 97 89 89 89 89 91 91 91 91 102 102 102 102 97 97 97 97 99 99 99 99 101 101 101 101 80 80 80 80 71 71 71 71 63 63 63 63 77 77 77 77 71 71 71 71 68 68 68 68 61 61 61 61 51 51 51 51 70 70 70 70 68 68 68 68 59 59 59 59 59 59 59 59 48 48 48 48 63 63 63 63 89 89 89 89 110 110 110 110 127 127 127 127 127 127 127 127 121 121 121 121 127 127 127 127 127 127 127 127 130 130 130 130 131 131 131 131 131 131 131 131 128 128 128 128 128 128 128 128 131 131 131 131 128 128 128 128 123 123 123 123 121 121 121 121 133 133 133 133 128 128 128 128 125 125 125 125 130 130 130 130 136 136 136 136 138 138 138 138 132 132 132 132 128 128 128 128 121 121 121 121 118 118 118 118 126 126 126 126 117 117 117 117 123 123 123 123 126 126 126 126 115 115 115 115 106 106 106 106 0 0 0 0 0 0 0 0 0 0 0 0 0 0 0 0 0 0 0 0 0 0 0 0 0 0 0 0 0 0 0 0 0 0 0 0 0 0 0 0 0 0 0
49 49 49 49 77 77 77 77 86 86 86 86 89 89 89 89 74 74 74 74 58 58 58 58 41 41 41 41 38 38 38 38 38 38 38 38 43 43 43 43 74 74 74 74 89 89 89 89 101 101 101 101 94 94 94 94 93 93 93 93 93 93 93 93 103 103 103 103 109 109 109 109 100 100 100 100 89 89 89 89 93 93 93 93 102 102 102 102 114 114 114 114 106 106 106 106 88 88 88 88 80 80 80 80 80 80 80 80 71 71 71 71 84 84 84 84 90 90 90 90 82 82 82 82 76 76 76 76 87 87 87 87 94 94 94 94 85 85 85 85 77 77 77 77 75 75 75 75 71 71 71 71 71 71 71 71 89 89 89 89 79 79 79 79 74 74 74 74 83 83 83 83 92 92 92 92 98 98 98 98 106 106 106 106 101 101 101 101 91 91 91 91 87 87 87 87 92 92 92 92 91 91 91 91 84 84 84 84 78 78 78 78 77 77 77 77 85 85 85 85 84 84 84 84 94 94 94 94 98 98 98 98 97 97 97 97 89 89 89 89 91 91 91 91 102 102 102 102 97 97 97 97 99 99 99 99 101 101 101 101 80 80 80 80 71 71 71 71 63 63 63 63 77 77 77 77 71 71 71 71 68 68 68 68 61 61 61 61 51 51 51 51 70 70 70 70 68 68 68 68 59 59 59 59 59 59 59 59 48 48 48 48 63 63 63 63 89 89 89 89 110 110 110 110 127 127 127 127 127 127 127 127 121 121 121 121 127 127 127 127 127 127 127 127 130 130 130 130 131 131 131 131 131 131 131 131 128 128 128 128 128 128 128 128 131 131 131 131 128 128 128 128 123 123 123 123 121 121 121 121 133 133 133 133 128 128 128 128 125 125 125 125 130 130 130 130 136 136 136 136 138 138 138 138 132 132 132 132 128 128 128 128 121 121 121 121 118 118 118 118 126 126 126 126 117 117 117 117 123 123 123 123 126 126 126 126 115 115 115 115 106 106 106 106 0 0 0 0 0 0 0 0 0 0 0 0 0 0 0 0 0 0 0 0 0 0 0 0 0 0 0 0 0 0 0 0 0 0 0 0 0 0 0 0 0 0 0
49 49 49 49 77 77 77 77 85 85 85 85 86 86 86 86 74 74 74 74 65 65 65 65 56 56 56 56 46 46 46 46 39 39 39 39 40 40 40 40 59 59 59 59 78 78 78 78 93 93 93 93 88 88 88 88 81 81 81 81 82 82 82 82 89 89 89 89 98 98 98 98 95 95 95 95 89 89 89 89 92 92 92 92 95 95 95 95 103 103 103 103 100 100 100 100 76 76 76 76 69 69 69 69 70 70 70 70 67 67 67 67 82 82 82 82 96 96 96 96 91 91 91 91 94 94 94 94 94 94 94 94 94 94 94 94 94 94 94 94 85 85 85 85 87 87 87 87 86 86 86 86 78 78 78 78 80 80 80 80 88 88 88 88 78 78 78 78 83 83 83 83 75 75 75 75 80 80 80 80 91 91 91 91 102 102 102 102 93 93 93 93 80 80 80 80 82 82 82 82 82 82 82 82 85 85 85 85 86 86 86 86 72 72 72 72 87 87 87 87 77 77 77 77 79 79 79 79 96 96 96 96 102 102 102 102 96 96 96 96 88 88 88 88 92 92 92 92 85 85 85 85 89 89 89 89 97 97 97 97 82 82 82 82 74 74 74 74 63 63 63 63 73 73 73 73 66 66 66 66 62 62 62 62 63 63 63 63 48 48 48 48 65 65 65 65 66 66 66 66 58 58 58 58 54 54 54 54 48 48 48 48 69 69 69 69 101 101 101 101 118 118 118 118 124 124 124 124 117 117 117 117 115 115 115 115 117 117 117 117 121 121 121 121 130 130 130 130 137 137 137 137 132 132 132 132 126 126 126 126 116 116 116 116 125 125 125 125 123 123 123 123 122 122 122 122 117 117 117 117 117 117 117 117 123 123 123 123 126 126 126 126 135 135 135 135 145 145 145 145 146 146 146 146 144 144 144 144 140 140 140 140 130 130 130 130 127 127 127 127 128 128 128 128 120 120 120 120 122 122 122 122 120 120 120 120 110 110 110 110 101 101 101 101 0 0 0 0 0 0 0 0 0 0 0 0 0 0 0 0 0 0 0 0 0 0 0 0 0 0 0 0 0 0 0 0 0 0 0 0 0 0 0 0 0 0 0
49 49 49 49 77 77 77 77 85 85 85 85 86 86 86 86 74 74 74 74 65 65 65 65 56 56 56 56 46 46 46 46 39 39 39 39 40 40 40 40 59 59 59 59 78 78 78 78 93 93 93 93 88 88 88 88 81 81 81 81 82 82 82 82 89 89 89 89 98 98 98 98 95 95 95 95 89 89 89 89 92 92 92 92 95 95 95 95 103 103 103 103 100 100 100 100 76 76 76 76 69 69 69 69 70 70 70 70 67 67 67 67 82 82 82 82 96 96 96 96 91 91 91 91 94 94 94 94 94 94 94 94 94 94 94 94 94 94 94 94 85 85 85 85 87 87 87 87 86 86 86 86 78 78 78 78 80 80 80 80 88 88 88 88 78 78 78 78 83 83 83 83 75 75 75 75 80 80 80 80 91 91 91 91 102 102 102 102 93 93 93 93 80 80 80 80 82 82 82 82 82 82 82 82 85 85 85 85 86 86 86 86 72 72 72 72 87 87 87 87 77 77 77 77 79 79 79 79 96 96 96 96 102 102 102 102 96 96 96 96 88 88 88 88 92 92 92 92 85 85 85 85 89 89 89 89 97 97 97 97 82 82 82 82 74 74 74 74 63 63 63 63 73 73 73 73 66 66 66 66 62 62 62 62 63 63 63 63 48 48 48 48 65 65 65 65 66 66 66 66 58 58 58 58 54 54 54 54 48 48 48 48 69 69 69 69 101 101 101 101 118 118 118 118 124 124 124 124 117 117 117 117 115 115 115 115 117 117 117 117 121 121 121 121 130 130 130 130 137 137 137 137 132 132 132 132 126 126 126 126 116 116 116 116 125 125 125 125 123 123 123 123 122 122 122 122 117 117 117 117 117 117 117 117 123 123 123 123 126 126 126 126 135 135 135 135 145 145 145 145 146 146 146 146 144 144 144 144 140 140 140 140 130 130 130 130 127 127 127 127 128 128 128 128 120 120 120 120 122 122 122 122 120 120 120 120 110 110 110 110 101 101 101 101 0 0 0 0 0 0 0 0 0 0 0 0 0 0 0 0 0 0 0 0 0 0 0 0 0 0 0 0 0 0 0 0 0 0 0 0 0 0 0 0 0 0 0
49 49 49 49 77 77 77 77 85 85 85 85 86 86 86 86 74 74 74 74 65 65 65 65 56 56 56 56 46 46 46 46 39 39 39 39 40 40 40 40 59 59 59 59 78 78 78 78 93 93 93 93 88 88 88 88 81 81 81 81 82 82 82 82 89 89 89 89 98 98 98 98 95 95 95 95 89 89 89 89 92 92 92 92 95 95 95 95 103 103 103 103 100 100 100 100 76 76 76 76 69 69 69 69 70 70 70 70 67 67 67 67 82 82 82 82 96 96 96 96 91 91 91 91 94 94 94 94 94 94 94 94 94 94 94 94 94 94 94 94 85 85 85 85 87 87 87 87 86 86 86 86 78 78 78 78 80 80 80 80 88 88 88 88 78 78 78 78 83 83 83 83 75 75 75 75 80 80 80 80 91 91 91 91 102 102 102 102 93 93 93 93 80 80 80 80 82 82 82 82 82 82 82 82 85 85 85 85 86 86 86 86 72 72 72 72 87 87 87 87 77 77 77 77 79 79 79 79 96 96 96 96 102 102 102 102 96 96 96 96 88 88 88 88 92 92 92 92 85 85 85 85 89 89 89 89 97 97 97 97 82 82 82 82 74 74 74 74 63 63 63 63 73 73 73 73 66 66 66 66 62 62 62 62 63 63 63 63 48 48 48 48 65 65 65 65 66 66 66 66 58 58 58 58 54 54 54 54 48 48 48 48 69 69 69 69 101 101 101 101 118 118 118 118 124 124 124 124 117 117 117 117 115 115 115 115 117 117 117 117 121 121 121 121 130 130 130 130 137 137 137 137 132 132 132 132 126 126 126 126 116 116 116 116 125 125 125 125 123 123 123 123 122 122 122 122 117 117 117 117 117 117 117 117 123 123 123 123 126 126 126 126 135 135 135 135 145 145 145 145 146 146 146 146 144 144 144 144 140 140 140 140 130 130 130 130 127 127 127 127 128 128 128 128 120 120 120 120 122 122 122 122 120 120 120 120 110 110 110 110 101 101 101 101 0 0 0 0 0 0 0 0 0 0 0 0 0 0 0 0 0 0 0 0 0 0 0 0 0 0 0 0 0 0 0 0 0 0 0 0 0 0 0 0 0 0 0
49 49 49 49 77 77 77 77 85 85 85 85 86 86 86 86 74 74 74 74 65 65 65 65 56 56 56 56 46 46 46 46 39 39 39 39 40 40 40 40 59 59 59 59 78 78 78 78 93 93 93 93 88 88 88 88 81 81 81 81 82 82 82 82 89 89 89 89 98 98 98 98 95 95 95 95 89 89 89 89 92 92 92 92 95 95 95 95 103 103 103 103 100 100 100 100 76 76 76 76 69 69 69 69 70 70 70 70 67 67 67 67 82 82 82 82 96 96 96 96 91 91 91 91 94 94 94 94 94 94 94 94 94 94 94 94 94 94 94 94 85 85 85 85 87 87 87 87 86 86 86 86 78 78 78 78 80 80 80 80 88 88 88 88 78 78 78 78 83 83 83 83 75 75 75 75 80 80 80 80 91 91 91 91 102 102 102 102 93 93 93 93 80 80 80 80 82 82 82 82 82 82 82 82 85 85 85 85 86 86 86 86 72 72 72 72 87 87 87 87 77 77 77 77 79 79 79 79 96 96 96 96 102 102 102 102 96 96 96 96 88 88 88 88 92 92 92 92 85 85 85 85 89 89 89 89 97 97 97 97 82 82 82 82 74 74 74 74 63 63 63 63 73 73 73 73 66 66 66 66 62 62 62 62 63 63 63 63 48 48 48 48 65 65 65 65 66 66 66 66 58 58 58 58 54 54 54 54 48 48 48 48 69 69 69 69 101 101 101 101 118 118 118 118 124 124 124 124 117 117 117 117 115 115 115 115 117 117 117 117 121 121 121 121 130 130 130 130 137 137 137 137 132 132 132 132 126 126 126 126 116 116 116 116 125 125 125 125 123 123 123 123 122 122 122 122 117 117 117 117 117 117 117 117 123 123 123 123 126 126 126 126 135 135 135 135 145 145 145 145 146 146 146 146 144 144 144 144 140 140 140 140 130 130 130 130 127 127 127 127 128 128 128 128 120 120 120 120 122 122 122 122 120 120 120 120 110 110 110 110 101 101 101 101 0 0 0 0 0 0 0 0 0 0 0 0 0 0 0 0 0 0 0 0 0 0 0 0 0 0 0 0 0 0 0 0 0 0 0 0 0 0 0 0 0 0 0
47 47 47 47 57 57 57 57 66 66 66 66 72 72 72 72 77 77 77 77 69 69 69 69 73 73 73 73 76 76 76 76 63 63 63 63 63 63 63 63 66 66 66 66 60 60 60 60 76 76 76 76 85 85 85 85 71 71 71 71 80 80 80 80 85 85 85 85 83 83 83 83 85 85 85 85 88 88 88 88 86 86 86 86 84 84 84 84 90 90 90 90 88 88 88 88 82 82 82 82 73 73 73 73 73 73 73 73 82 82 82 82 70 70 70 70 79 79 79 79 73 73 73 73 87 87 87 87 86 86 86 86 85 85 85 85 94 94 94 94 100 100 100 100 94 94 94 94 90 90 90 90 94 94 94 94 91 91 91 91 91 91 91 91 100 100 100 100 102 102 102 102 104 104 104 104 99 99 99 99 90 90 90 90 98 98 98 98 99 99 99 99 89 89 89 89 83 83 83 83 74 74 74 74 74 74 74 74 86 86 86 86 74 74 74 74 69 69 69 69 73 73 73 73 69 69 69 69 85 85 85 85 94 94 94 94 102 102 102 102 105 105 105 105 101 101 101 101 84 84 84 84 70 70 70 70 88 88 88 88 76 76 76 76 73 73 73 73 67 67 67 67 68 68 68 68 73 73 73 73 63 63 63 63 60 60 60 60 48 48 48 48 61 61 61 61 67 67 67 67 57 57 57 57 50 50 50 50 56 56 56 56 80 80 80 80 104 104 104 104 114 114 114 114 115 115 115 115 106 106 106 106 114 114 114 114 114 114 114 114 122 122 122 122 133 133 133 133 128 128 128 128 133 133 133 133 122 122 122 122 111 111 111 111 118 118 118 118 118 118 118 118 118 118 118 118 118 118 118 118 114 114 114 114 120 120 120 120 130 130 130 130 135 135 135 135 139 139 139 139 147 147 147 147 148 148 148 148 140 140 140 140 128 128 128 128 127 127 127 127 124 124 124 124 117 117 117 117 112 112 112 112 119 119 119 119 109 109 109 109 87 87 87 87 0 0 0 0 0 0 0 0 0 0 0 0 0 0 0 0 0 0 0 0 0 0 0 0 0 0 0 0 0 0 0 0 0 0 0 0 0 0 0 0 0 0 0
47 47 47 47 57 57 57 57 66 66 66 66 72 72 72 72 77 77 77 77 69 69 69 69 73 73 73 73 76 76 76 76 63 63 63 63 63 63 63 63 66 66 66 66 60 60 60 60 76 76 76 76 85 85 85 85 71 71 71 71 80 80 80 80 85 85 85 85 83 83 83 83 85 85 85 85 88 88 88 88 86 86 86 86 84 84 84 84 90 90 90 90 88 88 88 88 82 82 82 82 73 73 73 73 73 73 73 73 82 82 82 82 70 70 70 70 79 79 79 79 73 73 73 73 87 87 87 87 86 86 86 86 85 85 85 85 94 94 94 94 100 100 100 100 94 94 94 94 90 90 90 90 94 94 94 94 91 91 91 91 91 91 91 91 100 100 100 100 102 102 102 102 104 104 104 104 99 99 99 99 90 90 90 90 98 98 98 98 99 99 99 99 89 89 89 89 83 83 83 83 74 74 74 74 74 74 74 74 86 86 86 86 74 74 74 74 69 69 69 69 73 73 73 73 69 69 69 69 85 85 85 85 94 94 94 94 102 102 102 102 105 105 105 105 101 101 101 101 84 84 84 84 70 70 70 70 88 88 88 88 76 76 76 76 73 73 73 73 67 67 67 67 68 68 68 68 73 73 73 73 63 63 63 63 60 60 60 60 48 48 48 48 61 61 61 61 67 67 67 67 57 57 57 57 50 50 50 50 56 56 56 56 80 80 80 80 104 104 104 104 114 114 114 114 115 115 115 115 106 106 106 106 114 114 114 114 114 114 114 114 122 122 122 122 133 133 133 133 128 128 128 128 133 133 133 133 122 122 122 122 111 111 111 111 118 118 118 118 118 118 118 118 118 118 118 118 118 118 118 118 114 114 114 114 120 120 120 120 130 130 130 130 135 135 135 135 139 139 139 139 147 147 147 147 148 148 148 148 140 140 140 140 128 128 128 128 127 127 127 127 124 124 124 124 117 117 117 117 112 112 112 112 119 119 119 119 109 109 109 109 87 87 87 87 0 0 0 0 0 0 0 0 0 0 0 0 0 0 0 0 0 0 0 0 0 0 0 0 0 0 0 0 0 0 0 0 0 0 0 0 0 0 0 0 0 0 0
47 47 47 47 57 57 57 57 66 66 66 66 72 72 72 72 77 77 77 77 69 69 69 69 73 73 73 73 76 76 76 76 63 63 63 63 63 63 63 63 66 66 66 66 60 60 60 60 76 76 76 76 85 85 85 85 71 71 71 71 80 80 80 80 85 85 85 85 83 83 83 83 85 85 85 85 88 88 88 88 86 86 86 86 84 84 84 84 90 90 90 90 88 88 88 88 82 82 82 82 73 73 73 73 73 73 73 73 82 82 82 82 70 70 70 70 79 79 79 79 73 73 73 73 87 87 87 87 86 86 86 86 85 85 85 85 94 94 94 94 100 100 100 100 94 94 94 94 90 90 90 90 94 94 94 94 91 91 91 91 91 91 91 91 100 100 100 100 102 102 102 102 104 104 104 104 99 99 99 99 90 90 90 90 98 98 98 98 99 99 99 99 89 89 89 89 83 83 83 83 74 74 74 74 74 74 74 74 86 86 86 86 74 74 74 74 69 69 69 69 73 73 73 73 69 69 69 69 85 85 85 85 94 94 94 94 102 102 102 102 105 105 105 105 101 101 101 101 84 84 84 84 70 70 70 70 88 88 88 88 76 76 76 76 73 73 73 73 67 67 67 67 68 68 68 68 73 73 73 73 63 63 63 63 60 60 60 60 48 48 48 48 61 61 61 61 67 67 67 67 57 57 57 57 50 50 50 50 56 56 56 56 80 80 80 80 104 104 104 104 114 114 114 114 115 115 115 115 106 106 106 106 114 114 114 114 114 114 114 114 122 122 122 122 133 133 133 133 128 128 128 128 133 133 133 133 122 122 122 122 111 111 111 111 118 118 118 118 118 118 118 118 118 118 118 118 118 118 118 118 114 114 114 114 120 120 120 120 130 130 130 130 135 135 135 135 139 139 139 139 147 147 147 147 148 148 148 148 140 140 140 140 128 128 128 128 127 127 127 127 124 124 124 124 117 117 117 117 112 112 112 112 119 119 119 119 109 109 109 109 87 87 87 87 0 0 0 0 0 0 0 0 0 0 0 0 0 0 0 0 0 0 0 0 0 0 0 0 0 0 0 0 0 0 0 0 0 0 0 0 0 0 0 0 0 0 0
47 47 47 47 57 57 57 57 66 66 66 66 72 72 72 72 77 77 77 77 69 69 69 69 73 73 73 73 76 76 76 76 63 63 63 63 63 63 63 63 66 66 66 66 60 60 60 60 76 76 76 76 85 85 85 85 71 71 71 71 80 80 80 80 85 85 85 85 83 83 83 83 85 85 85 85 88 88 88 88 86 86 86 86 84 84 84 84 90 90 90 90 88 88 88 88 82 82 82 82 73 73 73 73 73 73 73 73 82 82 82 82 70 70 70 70 79 79 79 79 73 73 73 73 87 87 87 87 86 86 86 86 85 85 85 85 94 94 94 94 100 100 100 100 94 94 94 94 90 90 90 90 94 94 94 94 91 91 91 91 91 91 91 91 100 100 100 100 102 102 102 102 104 104 104 104 99 99 99 99 90 90 90 90 98 98 98 98 99 99 99 99 89 89 89 89 83 83 83 83 74 74 74 74 74 74 74 74 86 86 86 86 74 74 74 74 69 69 69 69 73 73 73 73 69 69 69 69 85 85 85 85 94 94 94 94 102 102 102 102 105 105 105 105 101 101 101 101 84 84 84 84 70 70 70 70 88 88 88 88 76 76 76 76 73 73 73 73 67 67 67 67 68 68 68 68 73 73 73 73 63 63 63 63 60 60 60 60 48 48 48 48 61 61 61 61 67 67 67 67 57 57 57 57 50 50 50 50 56 56 56 56 80 80 80 80 104 104 104 104 114 114 114 114 115 115 115 115 106 106 106 106 114 114 114 114 114 114 114 114 122 122 122 122 133 133 133 133 128 128 128 128 133 133 133 133 122 122 122 122 111 111 111 111 118 118 118 118 118 118 118 118 118 118 118 118 118 118 118 118 114 114 114 114 120 120 120 120 130 130 130 130 135 135 135 135 139 139 139 139 147 147 147 147 148 148 148 148 140 140 140 140 128 128 128 128 127 127 127 127 124 124 124 124 117 117 117 117 112 112 112 112 119 119 119 119 109 109 109 109 87 87 87 87 0 0 0 0 0 0 0 0 0 0 0 0 0 0 0 0 0 0 0 0 0 0 0 0 0 0 0 0 0 0 0 0 0 0 0 0 0 0 0 0 0 0 0
46 46 46 46 46 46 46 46 58 58 58 58 67 67 67 67 68 68 68 68 71 71 71 71 88 88 88 88 100 100 100 100 96 96 96 96 89 89 89 89 84 84 84 84 58 58 58 58 55 55 55 55 73 73 73 73 63 63 63 63 80 80 80 80 86 86 86 86 74 74 74 74 76 76 76 76 78 78 78 78 79 79 79 79 78 78 78 78 89 89 89 89 93 93 93 93 84 84 84 84 72 72 72 72 73 73 73 73 81 81 81 81 65 65 65 65 64 64 64 64 87 87 87 87 89 89 89 89 83 83 83 83 80 80 80 80 89 89 89 89 94 94 94 94 100 100 100 100 95 95 95 95 94 94 94 94 97 97 97 97 94 94 94 94 98 98 98 98 99 99 99 99 99 99 99 99 93 93 93 93 89 89 89 89 96 96 96 96 89 89 89 89 94 94 94 94 89 89 89 89 85 85 85 85 73 73 73 73 83 83 83 83 74 74 74 74 63 63 63 63 63 63 63 63 69 69 69 69 86 86 86 86 86 86 86 86 96 96 96 96 100 100 100 100 88 88 88 88 84 84 84 84 67 67 67 67 86 86 86 86 74 74 74 74 68 68 68 68 73 73 73 73 64 64 64 64 71 71 71 71 74 74 74 74 64 64 64 64 49 49 49 49 50 50 50 50 63 63 63 63 55 55 55 55 48 48 48 48 48 48 48 48 86 86 86 86 106 106 106 106 108 108 108 108 103 103 103 103 103 103 103 103 106 106 106 106 106 106 106 106 118 118 118 118 125 125 125 125 122 122 122 122 120 120 120 120 116 116 116 116 106 106 106 106 113 113 113 113 114 114 114 114 113 113 113 113 111 111 111 111 110 110 110 110 121 121 121 121 128 128 128 128 133 133 133 133 135 135 135 135 138 138 138 138 145 145 145 145 130 130 130 130 124 124 124 124 122 122 122 122 122 122 122 122 117 117 117 117 113 113 113 113 113 113 113 113 101 101 101 101 65 65 65 65 0 0 0 0 0 0 0 0 0 0 0 0 0 0 0 0 0 0 0 0 0 0 0 0 0 0 0 0 0 0 0 0 0 0 0 0 0 0 0 0 0 0 0
46 46 46 46 46 46 46 46 58 58 58 58 67 67 67 67 68 68 68 68 71 71 71 71 88 88 88 88 100 100 100 100 96 96 96 96 89 89 89 89 84 84 84 84 58 58 58 58 55 55 55 55 73 73 73 73 63 63 63 63 80 80 80 80 86 86 86 86 74 74 74 74 76 76 76 76 78 78 78 78 79 79 79 79 78 78 78 78 89 89 89 89 93 93 93 93 84 84 84 84 72 72 72 72 73 73 73 73 81 81 81 81 65 65 65 65 64 64 64 64 87 87 87 87 89 89 89 89 83 83 83 83 80 80 80 80 89 89 89 89 94 94 94 94 100 100 100 100 95 95 95 95 94 94 94 94 97 97 97 97 94 94 94 94 98 98 98 98 99 99 99 99 99 99 99 99 93 93 93 93 89 89 89 89 96 96 96 96 89 89 89 89 94 94 94 94 89 89 89 89 85 85 85 85 73 73 73 73 83 83 83 83 74 74 74 74 63 63 63 63 63 63 63 63 69 69 69 69 86 86 86 86 86 86 86 86 96 96 96 96 100 100 100 100 88 88 88 88 84 84 84 84 67 67 67 67 86 86 86 86 74 74 74 74 68 68 68 68 73 73 73 73 64 64 64 64 71 71 71 71 74 74 74 74 64 64 64 64 49 49 49 49 50 50 50 50 63 63 63 63 55 55 55 55 48 48 48 48 48 48 48 48 86 86 86 86 106 106 106 106 108 108 108 108 103 103 103 103 103 103 103 103 106 106 106 106 106 106 106 106 118 118 118 118 125 125 125 125 122 122 122 122 120 120 120 120 116 116 116 116 106 106 106 106 113 113 113 113 114 114 114 114 113 113 113 113 111 111 111 111 110 110 110 110 121 121 121 121 128 128 128 128 133 133 133 133 135 135 135 135 138 138 138 138 145 145 145 145 130 130 130 130 124 124 124 124 122 122 122 122 122 122 122 122 117 117 117 117 113 113 113 113 113 113 113 113 101 101 101 101 65 65 65 65 0 0 0 0 0 0 0 0 0 0 0 0 0 0 0 0 0 0 0 0 0 0 0 0 0 0 0 0 0 0 0 0 0 0 0 0 0 0 0 0 0 0 0
46 46 46 46 46 46 46 46 58 58 58 58 67 67 67 67 68 68 68 68 71 71 71 71 88 88 88 88 100 100 100 100 96 96 96 96 89 89 89 89 84 84 84 84 58 58 58 58 55 55 55 55 73 73 73 73 63 63 63 63 80 80 80 80 86 86 86 86 74 74 74 74 76 76 76 76 78 78 78 78 79 79 79 79 78 78 78 78 89 89 89 89 93 93 93 93 84 84 84 84 72 72 72 72 73 73 73 73 81 81 81 81 65 65 65 65 64 64 64 64 87 87 87 87 89 89 89 89 83 83 83 83 80 80 80 80 89 89 89 89 94 94 94 94 100 100 100 100 95 95 95 95 94 94 94 94 97 97 97 97 94 94 94 94 98 98 98 98 99 99 99 99 99 99 99 99 93 93 93 93 89 89 89 89 96 96 96 96 89 89 89 89 94 94 94 94 89 89 89 89 85 85 85 85 73 73 73 73 83 83 83 83 74 74 74 74 63 63 63 63 63 63 63 63 69 69 69 69 86 86 86 86 86 86 86 86 96 96 96 96 100 100 100 100 88 88 88 88 84 84 84 84 67 67 67 67 86 86 86 86 74 74 74 74 68 68 68 68 73 73 73 73 64 64 64 64 71 71 71 71 74 74 74 74 64 64 64 64 49 49 49 49 50 50 50 50 63 63 63 63 55 55 55 55 48 48 48 48 48 48 48 48 86 86 86 86 106 106 106 106 108 108 108 108 103 103 103 103 103 103 103 103 106 106 106 106 106 106 106 106 118 118 118 118 125 125 125 125 122 122 122 122 120 120 120 120 116 116 116 116 106 106 106 106 113 113 113 113 114 114 114 114 113 113 113 113 111 111 111 111 110 110 110 110 121 121 121 121 128 128 128 128 133 133 133 133 135 135 135 135 138 138 138 138 145 145 145 145 130 130 130 130 124 124 124 124 122 122 122 122 122 122 122 122 117 117 117 117 113 113 113 113 113 113 113 113 101 101 101 101 65 65 65 65 0 0 0 0 0 0 0 0 0 0 0 0 0 0 0 0 0 0 0 0 0 0 0 0 0 0 0 0 0 0 0 0 0 0 0 0 0 0 0 0 0 0 0
46 46 46 46 46 46 46 46 58 58 58 58 67 67 67 67 68 68 68 68 71 71 71 71 88 88 88 88 100 100 100 100 96 96 96 96 89 89 89 89 84 84 84 84 58 58 58 58 55 55 55 55 73 73 73 73 63 63 63 63 80 80 80 80 86 86 86 86 74 74 74 74 76 76 76 76 78 78 78 78 79 79 79 79 78 78 78 78 89 89 89 89 93 93 93 93 84 84 84 84 72 72 72 72 73 73 73 73 81 81 81 81 65 65 65 65 64 64 64 64 87 87 87 87 89 89 89 89 83 83 83 83 80 80 80 80 89 89 89 89 94 94 94 94 100 100 100 100 95 95 95 95 94 94 94 94 97 97 97 97 94 94 94 94 98 98 98 98 99 99 99 99 99 99 99 99 93 93 93 93 89 89 89 89 96 96 96 96 89 89 89 89 94 94 94 94 89 89 89 89 85 85 85 85 73 73 73 73 83 83 83 83 74 74 74 74 63 63 63 63 63 63 63 63 69 69 69 69 86 86 86 86 86 86 86 86 96 96 96 96 100 100 100 100 88 88 88 88 84 84 84 84 67 67 67 67 86 86 86 86 74 74 74 74 68 68 68 68 73 73 73 73 64 64 64 64 71 71 71 71 74 74 74 74 64 64 64 64 49 49 49 49 50 50 50 50 63 63 63 63 55 55 55 55 48 48 48 48 48 48 48 48 86 86 86 86 106 106 106 106 108 108 108 108 103 103 103 103 103 103 103 103 106 106 106 106 106 106 106 106 118 118 118 118 125 125 125 125 122 122 122 122 120 120 120 120 116 116 116 116 106 106 106 106 113 113 113 113 114 114 114 114 113 113 113 113 111 111 111 111 110 110 110 110 121 121 121 121 128 128 128 128 133 133 133 133 135 135 135 135 138 138 138 138 145 145 145 145 130 130 130 130 124 124 124 124 122 122 122 122 122 122 122 122 117 117 117 117 113 113 113 113 113 113 113 113 101 101 101 101 65 65 65 65 0 0 0 0 0 0 0 0 0 0 0 0 0 0 0 0 0 0 0 0 0 0 0 0 0 0 0 0 0 0 0 0 0 0 0 0 0 0 0 0 0 0 0
46 46 46 46 45 45 45 45 56 56 56 56 60 60 60 60 61 61 61 61 77 77 77 77 93 93 93 93 103 103 103 103 107 107 107 107 101 101 101 101 80 80 80 80 65 65 65 65 37 37 37 37 47 47 47 47 52 52 52 52 65 65 65 65 74 74 74 74 66 66 66 66 79 79 79 79 78 78 78 78 74 74 74 74 77 77 77 77 91 91 91 91 94 94 94 94 94 94 94 94 69 69 69 69 67 67 67 67 70 70 70 70 60 60 60 60 73 73 73 73 86 86 86 86 79 79 79 79 65 65 65 65 85 85 85 85 103 103 103 103 102 102 102 102 99 99 99 99 94 94 94 94 94 94 94 94 101 101 101 101 96 96 96 96 94 94 94 94 97 97 97 97 89 89 89 89 88 88 88 88 85 85 85 85 89 89 89 89 92 92 92 92 92 92 92 92 94 94 94 94 85 85 85 85 72 72 72 72 73 73 73 73 82 82 82 82 63 63 63 63 72 72 72 72 86 86 86 86 88 88 88 88 82 82 82 82 89 89 89 89 94 94 94 94 85 85 85 85 74 74 74 74 68 68 68 68 63 63 63 63 71 71 71 71 65 65 65 65 64 64 64 64 61 61 61 61 68 68 68 68 77 77 77 77 63 63 63 63 55 55 55 55 48 48 48 48 61 61 61 61 51 51 51 51 47 47 47 47 54 54 54 54 86 86 86 86 95 95 95 95 101 101 101 101 99 99 99 99 97 97 97 97 101 101 101 101 108 108 108 108 115 115 115 115 115 115 115 115 114 114 114 114 113 113 113 113 106 106 106 106 108 108 108 108 105 105 105 105 108 108 108 108 106 106 106 106 105 105 105 105 108 108 108 108 122 122 122 122 125 125 125 125 123 123 123 123 124 124 124 124 133 133 133 133 131 131 131 131 128 128 128 128 122 122 122 122 114 114 114 114 109 109 109 109 114 114 114 114 107 107 107 107 95 95 95 95 78 78 78 78 51 51 51 51 0 0 0 0 0 0 0 0 0 0 0 0 0 0 0 0 0 0 0 0 0 0 0 0 0 0 0 0 0 0 0 0 0 0 0 0 0 0 0 0 0 0 0
46 46 46 46 45 45 45 45 56 56 56 56 60 60 60 60 61 61 61 61 77 77 77 77 93 93 93 93 103 103 103 103 107 107 107 107 101 101 101 101 80 80 80 80 65 65 65 65 37 37 37 37 47 47 47 47 52 52 52 52 65 65 65 65 74 74 74 74 66 66 66 66 79 79 79 79 78 78 78 78 74 74 74 74 77 77 77 77 91 91 91 91 94 94 94 94 94 94 94 94 69 69 69 69 67 67 67 67 70 70 70 70 60 60 60 60 73 73 73 73 86 86 86 86 79 79 79 79 65 65 65 65 85 85 85 85 103 103 103 103 102 102 102 102 99 99 99 99 94 94 94 94 94 94 94 94 101 101 101 101 96 96 96 96 94 94 94 94 97 97 97 97 89 89 89 89 88 88 88 88 85 85 85 85 89 89 89 89 92 92 92 92 92 92 92 92 94 94 94 94 85 85 85 85 72 72 72 72 73 73 73 73 82 82 82 82 63 63 63 63 72 72 72 72 86 86 86 86 88 88 88 88 82 82 82 82 89 89 89 89 94 94 94 94 85 85 85 85 74 74 74 74 68 68 68 68 63 63 63 63 71 71 71 71 65 65 65 65 64 64 64 64 61 61 61 61 68 68 68 68 77 77 77 77 63 63 63 63 55 55 55 55 48 48 48 48 61 61 61 61 51 51 51 51 47 47 47 47 54 54 54 54 86 86 86 86 95 95 95 95 101 101 101 101 99 99 99 99 97 97 97 97 101 101 101 101 108 108 108 108 115 115 115 115 115 115 115 115 114 114 114 114 113 113 113 113 106 106 106 106 108 108 108 108 105 105 105 105 108 108 108 108 106 106 106 106 105 105 105 105 108 108 108 108 122 122 122 122 125 125 125 125 123 123 123 123 124 124 124 124 133 133 133 133 131 131 131 131 128 128 128 128 122 122 122 122 114 114 114 114 109 109 109 109 114 114 114 114 107 107 107 107 95 95 95 95 78 78 78 78 51 51 51 51 0 0 0 0 0 0 0 0 0 0 0 0 0 0 0 0 0 0 0 0 0 0 0 0 0 0 0 0 0 0 0 0 0 0 0 0 0 0 0 0 0 0 0
46 46 46 46 45 45 45 45 56 56 56 56 60 60 60 60 61 61 61 61 77 77 77 77 93 93 93 93 103 103 103 103 107 107 107 107 101 101 101 101 80 80 80 80 65 65 65 65 37 37 37 37 47 47 47 47 52 52 52 52 65 65 65 65 74 74 74 74 66 66 66 66 79 79 79 79 78 78 78 78 74 74 74 74 77 77 77 77 91 91 91 91 94 94 94 94 94 94 94 94 69 69 69 69 67 67 67 67 70 70 70 70 60 60 60 60 73 73 73 73 86 86 86 86 79 79 79 79 65 65 65 65 85 85 85 85 103 103 103 103 102 102 102 102 99 99 99 99 94 94 94 94 94 94 94 94 101 101 101 101 96 96 96 96 94 94 94 94 97 97 97 97 89 89 89 89 88 88 88 88 85 85 85 85 89 89 89 89 92 92 92 92 92 92 92 92 94 94 94 94 85 85 85 85 72 72 72 72 73 73 73 73 82 82 82 82 63 63 63 63 72 72 72 72 86 86 86 86 88 88 88 88 82 82 82 82 89 89 89 89 94 94 94 94 85 85 85 85 74 74 74 74 68 68 68 68 63 63 63 63 71 71 71 71 65 65 65 65 64 64 64 64 61 61 61 61 68 68 68 68 77 77 77 77 63 63 63 63 55 55 55 55 48 48 48 48 61 61 61 61 51 51 51 51 47 47 47 47 54 54 54 54 86 86 86 86 95 95 95 95 101 101 101 101 99 99 99 99 97 97 97 97 101 101 101 101 108 108 108 108 115 115 115 115 115 115 115 115 114 114 114 114 113 113 113 113 106 106 106 106 108 108 108 108 105 105 105 105 108 108 108 108 106 106 106 106 105 105 105 105 108 108 108 108 122 122 122 122 125 125 125 125 123 123 123 123 124 124 124 124 133 133 133 133 131 131 131 131 128 128 128 128 122 122 122 122 114 114 114 114 109 109 109 109 114 114 114 114 107 107 107 107 95 95 95 95 78 78 78 78 51 51 51 51 0 0 0 0 0 0 0 0 0 0 0 0 0 0 0 0 0 0 0 0 0 0 0 0 0 0 0 0 0 0 0 0 0 0 0 0 0 0 0 0 0 0 0
46 46 46 46 45 45 45 45 56 56 56 56 60 60 60 60 61 61 61 61 77 77 77 77 93 93 93 93 103 103 103 103 107 107 107 107 101 101 101 101 80 80 80 80 65 65 65 65 37 37 37 37 47 47 47 47 52 52 52 52 65 65 65 65 74 74 74 74 66 66 66 66 79 79 79 79 78 78 78 78 74 74 74 74 77 77 77 77 91 91 91 91 94 94 94 94 94 94 94 94 69 69 69 69 67 67 67 67 70 70 70 70 60 60 60 60 73 73 73 73 86 86 86 86 79 79 79 79 65 65 65 65 85 85 85 85 103 103 103 103 102 102 102 102 99 99 99 99 94 94 94 94 94 94 94 94 101 101 101 101 96 96 96 96 94 94 94 94 97 97 97 97 89 89 89 89 88 88 88 88 85 85 85 85 89 89 89 89 92 92 92 92 92 92 92 92 94 94 94 94 85 85 85 85 72 72 72 72 73 73 73 73 82 82 82 82 63 63 63 63 72 72 72 72 86 86 86 86 88 88 88 88 82 82 82 82 89 89 89 89 94 94 94 94 85 85 85 85 74 74 74 74 68 68 68 68 63 63 63 63 71 71 71 71 65 65 65 65 64 64 64 64 61 61 61 61 68 68 68 68 77 77 77 77 63 63 63 63 55 55 55 55 48 48 48 48 61 61 61 61 51 51 51 51 47 47 47 47 54 54 54 54 86 86 86 86 95 95 95 95 101 101 101 101 99 99 99 99 97 97 97 97 101 101 101 101 108 108 108 108 115 115 115 115 115 115 115 115 114 114 114 114 113 113 113 113 106 106 106 106 108 108 108 108 105 105 105 105 108 108 108 108 106 106 106 106 105 105 105 105 108 108 108 108 122 122 122 122 125 125 125 125 123 123 123 123 124 124 124 124 133 133 133 133 131 131 131 131 128 128 128 128 122 122 122 122 114 114 114 114 109 109 109 109 114 114 114 114 107 107 107 107 95 95 95 95 78 78 78 78 51 51 51 51 0 0 0 0 0 0 0 0 0 0 0 0 0 0 0 0 0 0 0 0 0 0 0 0 0 0 0 0 0 0 0 0 0 0 0 0 0 0 0 0 0 0 0
48 48 48 48 45 45 45 45 46 46 46 46 45 45 45 45 46 46 46 46 55 55 55 55 82 82 82 82 101 101 101 101 94 94 94 94 80 80 80 80 58 58 58 58 45 45 45 45 34 34 34 34 36 36 36 36 38 38 38 38 50 50 50 50 58 58 58 58 61 61 61 61 66 66 66 66 70 70 70 70 69 69 69 69 78 78 78 78 82 82 82 82 77 77 77 77 82 82 82 82 53 53 53 53 54 54 54 54 51 51 51 51 48 48 48 48 69 69 69 69 76 76 76 76 69 69 69 69 72 72 72 72 85 85 85 85 106 106 106 106 110 110 110 110 111 111 111 111 110 110 110 110 102 102 102 102 94 94 94 94 93 93 93 93 96 96 96 96 90 90 90 90 90 90 90 90 97 97 97 97 88 88 88 88 85 85 85 85 85 85 85 85 88 88 88 88 89 89 89 89 92 92 92 92 72 72 72 72 66 66 66 66 82 82 82 82 66 66 66 66 73 73 73 73 89 89 89 89 85 85 85 85 74 74 74 74 87 87 87 87 92 92 92 92 93 93 93 93 88 88 88 88 71 71 71 71 58 58 58 58 63 63 63 63 63 63 63 63 74 74 74 74 58 58 58 58 62 62 62 62 69 69 69 69 61 61 61 61 49 49 49 49 45 45 45 45 57 57 57 57 53 53 53 53 45 45 45 45 81 81 81 81 98 98 98 98 94 94 94 94 85 85 85 85 89 89 89 89 90 90 90 90 89 89 89 89 109 109 109 109 117 117 117 117 106 106 106 106 101 101 101 101 102 102 102 102 101 101 101 101 101 101 101 101 98 98 98 98 99 99 99 99 101 101 101 101 101 101 101 101 102 102 102 102 115 115 115 115 115 115 115 115 115 115 115 115 118 118 118 118 126 126 126 126 122 122 122 122 115 115 115 115 106 106 106 106 99 99 99 99 89 89 89 89 82 82 82 82 77 77 77 77 72 72 72 72 67 67 67 67 47 47 47 47 0 0 0 0 0 0 0 0 0 0 0 0 0 0 0 0 0 0 0 0 0 0 0 0 0 0 0 0 0 0 0 0 0 0 0 0 0 0 0 0 0 0 0
48 48 48 48 45 45 45 45 46 46 46 46 45 45 45 45 46 46 46 46 55 55 55 55 82 82 82 82 101 101 101 101 94 94 94 94 80 80 80 80 58 58 58 58 45 45 45 45 34 34 34 34 36 36 36 36 38 38 38 38 50 50 50 50 58 58 58 58 61 61 61 61 66 66 66 66 70 70 70 70 69 69 69 69 78 78 78 78 82 82 82 82 77 77 77 77 82 82 82 82 53 53 53 53 54 54 54 54 51 51 51 51 48 48 48 48 69 69 69 69 76 76 76 76 69 69 69 69 72 72 72 72 85 85 85 85 106 106 106 106 110 110 110 110 111 111 111 111 110 110 110 110 102 102 102 102 94 94 94 94 93 93 93 93 96 96 96 96 90 90 90 90 90 90 90 90 97 97 97 97 88 88 88 88 85 85 85 85 85 85 85 85 88 88 88 88 89 89 89 89 92 92 92 92 72 72 72 72 66 66 66 66 82 82 82 82 66 66 66 66 73 73 73 73 89 89 89 89 85 85 85 85 74 74 74 74 87 87 87 87 92 92 92 92 93 93 93 93 88 88 88 88 71 71 71 71 58 58 58 58 63 63 63 63 63 63 63 63 74 74 74 74 58 58 58 58 62 62 62 62 69 69 69 69 61 61 61 61 49 49 49 49 45 45 45 45 57 57 57 57 53 53 53 53 45 45 45 45 81 81 81 81 98 98 98 98 94 94 94 94 85 85 85 85 89 89 89 89 90 90 90 90 89 89 89 89 109 109 109 109 117 117 117 117 106 106 106 106 101 101 101 101 102 102 102 102 101 101 101 101 101 101 101 101 98 98 98 98 99 99 99 99 101 101 101 101 101 101 101 101 102 102 102 102 115 115 115 115 115 115 115 115 115 115 115 115 118 118 118 118 126 126 126 126 122 122 122 122 115 115 115 115 106 106 106 106 99 99 99 99 89 89 89 89 82 82 82 82 77 77 77 77 72 72 72 72 67 67 67 67 47 47 47 47 0 0 0 0 0 0 0 0 0 0 0 0 0 0 0 0 0 0 0 0 0 0 0 0 0 0 0 0 0 0 0 0 0 0 0 0 0 0 0 0 0 0 0
48 48 48 48 45 45 45 45 46 46 46 46 45 45 45 45 46 46 46 46 55 55 55 55 82 82 82 82 101 101 101 101 94 94 94 94 80 80 80 80 58 58 58 58 45 45 45 45 34 34 34 34 36 36 36 36 38 38 38 38 50 50 50 50 58 58 58 58 61 61 61 61 66 66 66 66 70 70 70 70 69 69 69 69 78 78 78 78 82 82 82 82 77 77 77 77 82 82 82 82 53 53 53 53 54 54 54 54 51 51 51 51 48 48 48 48 69 69 69 69 76 76 76 76 69 69 69 69 72 72 72 72 85 85 85 85 106 106 106 106 110 110 110 110 111 111 111 111 110 110 110 110 102 102 102 102 94 94 94 94 93 93 93 93 96 96 96 96 90 90 90 90 90 90 90 90 97 97 97 97 88 88 88 88 85 85 85 85 85 85 85 85 88 88 88 88 89 89 89 89 92 92 92 92 72 72 72 72 66 66 66 66 82 82 82 82 66 66 66 66 73 73 73 73 89 89 89 89 85 85 85 85 74 74 74 74 87 87 87 87 92 92 92 92 93 93 93 93 88 88 88 88 71 71 71 71 58 58 58 58 63 63 63 63 63 63 63 63 74 74 74 74 58 58 58 58 62 62 62 62 69 69 69 69 61 61 61 61 49 49 49 49 45 45 45 45 57 57 57 57 53 53 53 53 45 45 45 45 81 81 81 81 98 98 98 98 94 94 94 94 85 85 85 85 89 89 89 89 90 90 90 90 89 89 89 89 109 109 109 109 117 117 117 117 106 106 106 106 101 101 101 101 102 102 102 102 101 101 101 101 101 101 101 101 98 98 98 98 99 99 99 99 101 101 101 101 101 101 101 101 102 102 102 102 115 115 115 115 115 115 115 115 115 115 115 115 118 118 118 118 126 126 126 126 122 122 122 122 115 115 115 115 106 106 106 106 99 99 99 99 89 89 89 89 82 82 82 82 77 77 77 77 72 72 72 72 67 67 67 67 47 47 47 47 0 0 0 0 0 0 0 0 0 0 0 0 0 0 0 0 0 0 0 0 0 0 0 0 0 0 0 0 0 0 0 0 0 0 0 0 0 0 0 0 0 0 0
